# 3D point list with one line of data per point:
#   POINT3D_ID, X, Y, Z, R, G, B, ERROR, TRACK[] as (IMAGE_ID, POINT2D_IDX)
# Number of points: 338, mean track length: 5.6273885350318471
9 0.23319922641395124 1.5236136687325101 0.51881432417089757 0 0 0 1.8741310605660371 13 25 94 21 22 40 69 24 43 55
10 0.50513388008607985 1.8531145158163345 0.13197791688135838 218 174 143 1.7716935685583999 13 23 94 22 19 23 66 20 2 20 86 24 18 22 22 16 55 15 69 22 9 22 32 23 43 21 84 27 85 24 51 27 95 31 45 22 50 25
11 0.60867616825548065 1.7391015604728077 0.10037465216597778 0 2 3 1.2644246578336715 13 42 19 25 2 35 86 39 18 50
12 -0.29047686549836066 0.76878885768867544 0.49568222994478978 143 103 69 1.7325878573634315 13 34 19 19 2 27 86 29 18 33 22 19 55 24 69 31 9 33 32 33 43 15 46 19 84 37 85 28 59 29 10 25 5 28 16 29 97 21 63 28 68 22 31 26 67 20 4 20 60 35 81 35 33 28
13 0.38423376955396815 1.1418854227542654 1.1466614259571741 0 0 0 1.4672574246327656 13 26 66 23 94 25
15 0.60814359582046051 1.7378308899864627 0.10147811986700239 0 2 3 1.2055942281929977 13 39 19 26 66 44 2 37 86 45 18 57 51 57 95 71
16 0.26211608312579548 1.8179371278304719 0.15870749110464125 215 166 133 1.5194960080333726 13 29 94 28 19 27 66 30 2 25 22 42 69 20 9 20 43 43 46 26 85 26 59 36 5 32 16 32 97 35 63 29 76 41 49 42
17 -0.28993496591038981 0.76867203730778455 0.49543046431315962 143 103 69 1.7249319570600872 13 33 19 18 2 22 86 26 18 28 22 29 55 17 69 23 9 24 32 24 43 24 46 27 84 28 85 32 59 31 10 17 92 40 5 27 16 30 97 30 68 20 31 31 67 29 4 25 60 29 81 40
18 0.39836101085759873 1.8323022289167106 0.15023635213158648 212 163 129 1.3754763294466659 13 27 94 30 19 16 66 21 2 19 86 18 18 26 51 28 45 25 95 32
19 0.42819497449342758 1.731376582834071 0.11856637372285959 0 0 0 0.17761617367556973 13 32 94 35 66 22
20 0.67030863463352897 1.4942767764232154 0.1292397898898206 1 1 1 0.66173818640847593 13 47 94 42 19 39 66 49 2 48 86 40 18 36 22 34 55 43 69 42 9 48 32 50 43 32 46 40 85 53 59 47 92 80 5 74 16 88 68 136
21 0.67030863463352897 1.4942767764232154 0.1292397898898206 1 1 1 0.66173818640847593 13 54 94 46 19 35 66 50 2 58 86 48 18 41 22 41 55 35 69 40 9 45 32 52 43 46 46 53 85 55 59 48 92 74 5 69 16 78 68 124
22 -0.2913232690675035 0.8095017222698474 0.4608613096078959 0 0 0 0.90205526851581008 13 41 94 48 19 38 66 28 22 56 55 36 69 44 9 43 32 44 43 54 46 86 84 51 51 41 45 40 95 48 98 44 50 40 54 34 36 41 15 39 6 35 53 57
23 0.52785045958184096 1.8076492199460452 0.17728946675804955 12 23 28 1.1396067587269842 13 52 19 77 55 45 9 87 32 68 84 82
24 0.55612437885766453 1.732740337155132 0.09781471481038799 166 189 196 1.2607529388701062 13 51 94 54 66 62 2 52 19 29 51 81 45 80 95 123 98 68
25 0.63360772684771838 1.7058378740458426 0.11052907264421272 110 161 178 1.1647093478880686 13 58 94 55 19 54 66 69 2 79 86 83 18 103 22 37 55 27 69 33 9 39 32 42 43 45 46 181 84 43 10 39 51 77 45 67
26 0.70911860950212513 1.5205299158144463 0.12825253873942741 231 231 231 1.4516149817009456 13 49 94 57 66 52 2 34 86 37 18 37 69 25 46 51 85 48 59 66 92 42
27 0.23592019704355435 1.6574662418401742 0.39748680458410485 196 131 92 0.28567329705731681 13 59 94 61 19 57 66 64 2 70 86 69 9 57 32 66 46 66 85 64 59 56 5 72 16 59 51 63 95 87 97 62 68 65
28 0.47949290376179138 1.7156847468080063 0.096732980012035674 164 180 187 0.98038867208077063 13 50 94 62 19 55 66 60 55 38 9 41 32 55 51 53 45 61 95 65 98 55
30 0.69705649838553496 1.5070082298256122 0.12734873361931334 192 192 192 0.89513307385362106 13 76 94 67 19 71 66 72 2 76 86 80 18 74 22 64 55 74 69 58 9 83 32 91 43 77 46 96 10 67 5 84 16 133 51 106 45 110 97 97 63 130 68 170 60 260
32 0.68073768826215941 1.1829461449280072 1.1225812990266275 165 191 182 0.80335366740101488 13 40 19 28 66 34 2 28 86 30 18 32 43 34 46 22 85 30 59 28 92 35 5 25 16 36 97 44 63 44 68 35 76 55 49 62 62 67
33 0.7423247407741187 1.4563373187790933 0.22763651940181467 176 207 216 0.59845897788149038 13 65 94 76 19 62 66 73
34 0.43092475164784672 1.818863088605329 0.17046462970074372 208 157 121 0.5123945060921592 13 77 94 77 19 76 66 68 22 87 55 72 69 88 9 88 43 67 84 131 51 66
35 0.43045836482700101 1.6879082830529701 0.12304326957176855 135 148 158 0.6250729160434908 13 99 94 82 32 94 9 116
36 0.50247161718723354 1.7913861676564629 0.1303682216657914 192 134 92 0.7330349360279399 13 91 94 83 66 101
37 0.1980963811271271 1.8383501784028062 0.15428861676184066 4 1 0 0.82827772609613592 13 107 94 85 19 93 66 102 86 139 2 144 18 140 22 112 55 97 69 105 9 89 32 79 43 101 46 160 84 83 59 114 85 96 5 146 51 92 45 101 95 95 98 75 50 131 54 158 7 153 4 121
38 0.42643055478339142 1.8733061467999343 0.12121283595103551 21 6 1 0.86236829727647291 13 60 94 102 19 70 2 104 66 40 86 111 18 177 22 70 55 57 55 65 69 107 9 66 32 81 43 138 95 109 50 107 54 128
39 0.21062425817551575 1.6493027612289255 0.40665623280838237 213 178 146 0.35048498246005716 13 97 94 106 19 103 66 100 18 105 55 86 69 95 9 98 32 96 85 118 59 93 16 111 51 123 45 118 95 104 98 112 68 120 4 93 60 112
40 0.0040880130460048117 1.140045833367932 0.44286037287219976 1 0 0 1.0806222868241344 13 84 94 110 19 98 66 95 2 89 86 79 18 92 22 83 55 93 2 124 69 79 9 76 32 83 43 79 46 90 84 98 45 142 98 136
41 0.21774737391964749 1.718153723321145 0.30619234088542291 202 142 104 0.2966904207876449 13 105 94 113 55 83 32 116 63 146
42 0.21822820114753994 1.7175546808857725 0.30614695756057747 202 142 104 0.33454339707529912 13 101 94 114 55 81 32 111 16 121 51 121 45 116 95 142 63 136
43 0.85678764207648317 1.6836809811885527 0.24322342971700836 115 155 173 0.28430357103076537 13 214 94 115 19 175 2 155 86 240 18 268 92 271
44 0.7342594138451991 1.4810967201347105 0.19203609068179775 117 164 199 0.30819849344960232 13 96 94 116 2 67 86 84 18 73 55 76 69 82 22 74 9 99 43 61 46 80 84 120 85 56 59 67 92 79 5 85 16 70 97 112 63 132 31 72 61 59
45 0.12573705757036283 1.5029213113225126 0.62891626933338496 194 144 103 0.47764824381247289 13 119 94 117 66 138
46 0.42493761819443115 1.446763967806455 0.71424622939855542 33 31 34 0.23631101792617409 94 119 19 92
47 0.4491408814950445 1.7144996526163672 0.10271069760797133 0 0 0 0.54545805412736925 13 100 94 125 9 114 45 81 51 72 95 85 98 69 50 66
48 0.70569599395922133 1.5141930879155912 0.13039655324076957 236 236 236 0.344042080966659 13 167 94 142 19 144 2 145 86 150 18 178 22 141 55 109 69 117 9 121 32 173 46 194 84 167 85 180 59 179 92 186 31 208 67 186
49 0.49011059197947093 1.507903940437608 0.15932292058818015 151 170 176 0.23210775615313389 13 114 94 143 66 136 86 155 18 144 46 174 5 165 16 221 51 151 45 146 95 176 97 135 63 149 68 225 76 204 50 133 54 134 7 158
50 0.76289250827937094 1.5047128018531337 0.20408873195339103 178 206 215 0.28178765769380232 13 164 94 146 19 209 66 194 2 212 86 191 55 135 9 174 32 174 43 168 46 168 10 159
52 0.77437560755433565 1.4118165380487169 0.35363397335538693 202 187 176 0.28728419526039239 13 160 94 151 19 190 66 188 2 234 86 254 18 293 55 116 69 120 9 125 32 130 43 183 84 119 10 152 45 192 51 144 95 164
53 0.52869798502770915 1.8315194715980911 0.15837539231215483 164 105 58 0.31331081250369797 13 135 94 159 19 180 66 165 22 119 55 124 69 139 9 157 32 154 43 158 2 259 51 163 95 185 54 184
54 0.49018447572290474 1.5079810084096577 0.1593566728518423 151 170 176 0.23348677077775451 13 130 94 160 66 158 86 130 18 164 46 179 59 182 5 175 16 209 51 133 45 126 95 158 98 169 97 157 63 161 68 211 76 197 50 129 54 149 7 151
56 0.56662880137252614 1.8271369488611804 0.16445711677818695 133 74 36 0.25031358812327614 13 134 94 170 19 181 66 163 2 218 86 238 18 188 9 156 22 176 32 153
58 0.5963752183344978 1.7329230762456422 0.10831155344388094 57 123 147 0.32623560156534687 13 153 94 174 19 198 66 149 2 276 18 262 22 128 55 113 69 94 9 97 32 120 43 178 84 91 10 113 51 193 45 164 98 196
61 0.92031148817918451 1.6463062625846212 0.31504009443004299 134 169 189 0.75908212670446729 13 215 94 215 19 307 86 266 51 218
62 0.68158600894834898 1.6935716771271618 0.12019622508472338 130 170 185 0.18260399006271066 13 210 94 218 19 196 66 249 2 278 22 162 55 146 69 144 9 115 32 180 43 177 84 170 10 161
63 0.69903925295410918 1.786429119591368 0.2267702240135743 155 100 52 0.60285272130762257 13 170 94 224 19 210 2 256 55 122 69 140 9 142 32 118
64 0.43626813712075913 1.702646708558134 0.11318205116654044 2 2 2 0.096210424504408809 13 195 94 226 66 162 9 241 32 227
65 0.30928072605593854 1.2664245136305186 0.98477017474648987 214 169 134 0.56793459560053783 13 177 94 230 19 253 86 225 18 246 46 213 85 237 59 199 5 223 16 234 68 255 4 240 60 218 81 259 71 197 34 164 56 233 42 229 33 218 87 223 90 233
66 0.70201744324802662 1.5257137607015492 0.12282459702706028 192 192 191 0.29811067084701742 13 216 94 276 19 195 66 255 2 213 86 261 18 301 22 189 55 184 32 198 43 187 10 176 51 217 45 206 95 248
68 0.1976754612672055 1.816097527162192 0.16551160124990219 193 127 86 0.34521268190320847 94 261 13 204 19 274 66 230 22 161 69 158 9 223 43 228 10 128 51 242 45 263 97 276
69 0.64520553114290746 1.6128366383040218 0.63679279995244698 164 201 213 1.6342678493569163 19 0 2 2 86 3 18 0 46 1 92 0 31 1 85 0 67 1 4 3 5 2 59 3 60 0
70 0.65373743567470699 1.6020472899621354 0.62379948541497177 164 201 213 1.9801524619245015 13 2 19 1 66 0 86 2 18 2 46 0 85 1 92 1 31 0 67 0
71 0.66308555907069844 1.5868237058125578 0.59110601610028324 164 201 213 1.7748431778379568 13 3 94 2 19 2 66 1 2 1 86 0
72 0.66246237850351186 1.5871608690422203 0.59432773643469883 164 201 213 1.7554382240259001 94 0 19 3 13 0 66 2 2 0 86 1 18 1
73 0.91754482382674685 1.8523936422313854 0.20221895463949652 233 200 176 1.5839109931833066 13 10 19 5 2 4 86 6 18 4
74 0.91945725852236404 1.8463952169921152 0.1970840852870778 233 200 176 1.7022047196700973 13 8 19 7 2 3 86 5 18 3 60 6 94 7
75 0.26859492166668314 1.1943986575326333 1.1233756636999526 211 166 130 1.7001200092323061 13 20 19 10 66 17 86 15 18 20 2 16 46 12 85 9 59 10 92 17 5 9 97 15 63 17 60 17 76 22
76 0.26526392343683697 1.2094454033871391 1.1415903047491476 211 166 130 1.0650872683659376 13 22 94 20 19 11 66 16 86 16
77 0.85337005981910286 1.1898886004023794 1.1130129615030233 164 191 187 1.3422315035778991 13 28 94 49 19 24 66 19 2 21 86 28 18 24 22 20 55 30 69 38 43 27 46 18 85 23 59 22 10 36 92 28 5 31 16 31 97 23 63 27 51 36 68 32 76 46 31 11 67 22 61 31 49 51 62 68
78 0.64943884248007666 2.0166911223102693 0.17296570482651669 154 105 64 1.6309418615905507 13 35 19 32 66 57 2 82 86 95 22 25 43 49 10 29
80 0.6295710997820102 1.5668902636034141 0.10878339725576565 114 165 188 0.99208160816345936 94 56 19 41 66 53 2 77 86 74 18 75 55 37 46 97 84 40 85 114 59 108 10 37 5 87 51 50 45 55 95 69 98 66
83 0.71209507528714822 2.0136872652646924 0.17202566610810047 80 46 21 0.72097899523236453 13 70 19 50 66 129 2 128
84 0.58307260691934604 1.997104018235593 0.16916000739223302 169 120 80 1.2106280337528657 13 55 94 36 19 51 66 56 2 91 86 94 18 161 22 24 43 26
85 0.7068907583138816 1.5840363401562321 0.12156552685095807 100 124 158 0.78090915542071881 94 41 19 56 2 78 86 89 55 44 9 30 32 39 46 115 84 45 10 38 92 99
86 -0.013615480307247227 1.1037908445763012 0.43607692188094649 145 106 73 0.52537722162126499 13 82 19 65 86 98 18 64 46 89 85 93 10 59 5 79
88 1.0074328035733024 1.2423335476199626 1.0884983959688741 1 1 1 1.0867631819557113 13 80 19 67 66 66 18 65 9 100 2 150 32 85 43 70 46 36 85 74 59 58 5 122 97 69
91 0.025232716002975202 1.7825975015524278 0.20946086286342769 0 0 0 1.8443490761884775 94 63 19 72 66 29 86 60 18 49
92 0.45029880544826473 1.9887355378272931 0.18917506832964412 103 65 34 0.98991006395702419 13 69 19 74 94 47 66 89 2 130 55 25 22 44 32 29 45 27 98 24 50 30 54 37
94 0.23599387566460342 1.1683040943154777 1.1532402339245398 213 174 143 1.1973778414481882 94 103 19 82 2 86 86 42 2 31 92 60
95 0.54315180197176405 1.8451985184934809 0.14532296012311041 218 175 145 0.45587563405622483 13 78 19 84 2 131 22 108 43 137
96 0.21988055114612579 1.8338841422825365 0.15338483418807997 206 159 122 1.1155190107839137 94 101 19 89 66 92 2 173 86 148 18 134 22 129 55 98 69 102 9 94 32 107 43 103 46 233 84 132 59 113 10 207 5 90 85 65 16 126 51 85 45 155 95 96 95 182 98 148 97 84 63 83 50 105 54 124 7 137
97 0.74271077843333166 1.7017800098548299 0.15632699349732485 108 156 174 0.2588943882082545 13 98 19 90 2 132 86 198 18 174
98 0.57998152436988282 1.4369194982911735 0.38921900750654609 196 163 148 2.2252473745348063 13 94 19 99 66 88 43 112
99 1.0299184983297067 1.2603778418780636 1.0658229119879525 216 181 151 1.077568036476654 94 121 19 101 18 88 46 65 59 72 69 119 5 89 97 77
100 0.65716142449104686 1.5838749687881255 0.1089863292265025 83 139 170 0.20945994396563458 94 107 19 105 2 113 22 115 55 88 69 84 9 91 32 104 43 93 84 96 10 79
101 0.89325244794989911 1.4603565163689425 0.38076425065324826 174 202 213 0.16850312634268905 13 118 19 107 2 99
102 0.55971843545233624 1.8528835937222381 0.13165587051941566 207 149 116 0.34891827395567854 13 128 94 136 19 109 66 130 2 163 18 106 22 155 55 127 69 128 43 154 51 162 45 159 98 159
103 0.86408783595672156 1.8220908163344445 0.19010551261650852 219 167 137 0.39267367238313583 13 110 94 111 19 110 66 120 2 120 86 140 18 135 55 133 9 135 32 137 43 123 46 141 85 152 59 99 10 185 92 160 5 149 51 149 45 150 95 173 98 217 31 145 67 128 58 171 4 138 60 150 81 174
104 0.26922687893562419 1.5875296006096529 0.50198368648606717 208 168 134 1.5745911279423801 13 88 94 99 19 113 66 91 86 187 18 224 51 67 45 78 95 86 97 93 63 111
105 0.21487494123115733 1.2632405709038561 0.48071278466404554 1 1 1 0.011789433362152987 94 192 46 158
106 0.73790985081562244 1.2281625657666579 0.98445079813406899 88 140 182 1.1345581117169237 66 79 2 184 46 44 85 43 59 33 18 120 86 169 92 32 5 55 16 66 51 111 95 135 97 66 63 74 68 51 31 40 67 24 4 19 60 59 81 71 71 64 34 66 56 60 42 57 33 56
107 0.55461830077295715 1.8858612015816265 0.11039590337492347 34 14 3 0.43157697382972737 13 125 94 134 19 127 2 175 86 144 69 106 9 92 43 134 84 99 10 123
108 0.56044398510057036 1.8528525180407014 0.13133673661050776 207 149 116 0.31873655078826008 13 124 94 137 19 128 66 122 2 177 86 145 18 128 22 148 46 148 85 142 59 142 51 156 45 152
109 0.86408783595672156 1.8220908163344445 0.19010551261650852 219 167 137 0.39267367238313583 13 108 94 138 19 129 66 124 2 129 86 142 18 127 55 114 9 148 32 145 43 121 46 144 85 135 59 106 10 202 92 171 5 133 51 131 45 129 95 153 98 241 31 129 67 110 58 208 4 118 60 164 81 180
110 0.58179327288501814 1.8339861281543646 0.1559029456303353 217 177 147 1.321383221817382 94 68 19 131 66 38 2 92 86 43 18 55 22 122 55 126 69 154 9 149 43 136 43 212 92 105 45 117 98 151
111 0.64612550466199026 1.8112420339951556 0.1883717873922334 179 120 75 0.11499961312728368 13 121 94 139 19 132
113 0.99953081133411847 1.4682366819087926 0.67274790268329288 176 202 210 0.46407497841440271 13 150 94 209 19 150 2 118 86 129 18 138 46 154 85 160 92 157 31 148 67 142
114 -0.018049897174596534 1.0389068779297506 0.47396920844999701 151 112 80 1.3947690267855781 13 154 19 160 69 124 86 109 9 129 43 119 10 108
115 0.54052518983704967 1.959381509751619 0.16288372788211669 96 58 28 1.3003058459386845 13 139 19 163 94 164 66 241 55 132 69 135 32 109 45 154 98 162 36 145 15 188 6 161 53 108
116 1.0066511501281146 1.4806250264717493 0.75970030954472856 179 204 206 1.7607568211598246 13 158 94 194 19 166
117 0.99980430092904027 1.7135946100727537 0.36058242560859444 232 188 166 0.40461519371985122 13 148 94 217 19 168 66 175 86 174 22 149 55 151 69 150 9 209 32 182 85 183 4 212 60 187 81 247 71 203 34 240 56 255
118 0.55225256191700201 2.0191281864081292 0.18623137129545053 1 1 1 1.0191739223370611 94 127 19 173 55 103 9 102 32 140 43 129 51 115 50 102 54 88
119 0.58200872130474524 1.9441656167724604 0.13654482319720188 20 8 1 0.90780116495276419 13 127 94 131 19 174 22 160 55 101 69 104 9 69 32 78 43 130 84 41 10 93
120 0.67762504473731866 1.8179022866510017 0.18783204106044646 222 186 157 0.23965203871252999 13 123 94 173 19 182 66 150 2 176 86 201 18 173 22 154 55 125 69 138 9 150 32 146 43 144 46 147 92 261 51 168 45 166 98 251
121 0.59041599753122365 1.8211017065846624 0.17415989356649045 172 113 68 0.1740979163168638 13 132 94 171 19 183 2 219 86 239
122 0.738011615414494 1.7712546140804779 0.26829296317498841 66 129 154 2.5665376598155132 13 169 92 266
124 0.60436302690313359 1.4043029218793615 0.25734193386530113 183 206 215 0.21748323126228558 94 238 19 189 2 187 86 181 18 146
125 0.68820788579150227 1.804316805348311 0.2038522772590427 177 116 72 0.18922437390206523 13 208 94 202 19 199 2 258 86 230 66 264 18 259 55 206 22 251 69 222
127 0.66966105727937586 1.9637510869338555 0.1365112651270223 61 33 12 0.31725496370444362 94 180 19 203 55 143 22 255 69 229 9 141 32 151 84 154 10 189
128 0.86808596393360404 1.8382238375338888 0.16714471259843414 223 175 147 0.34212572883199582 13 205 94 220 19 205 66 200 2 207 86 248 18 192 46 197 85 207 59 181 5 209 16 215 51 260 97 227 31 279 60 247
130 0.86774903184408603 1.8871022834124589 0.084832070154336664 218 166 132 0.48441848663738668 13 203 94 205 19 207 66 216 2 260 86 243 18 249 22 243 55 219 69 225 9 159 32 156 84 209
131 0.86656469768365418 1.889451107971396 0.088687519419075586 218 166 132 0.14231641174330276 13 187 94 190 19 214 66 232 86 222
132 0.86845492960622361 1.8383900691999899 0.16677055413446171 223 175 147 0.28840864921248172 13 186 94 191 19 215 66 171 86 224 46 169 85 188 16 223 51 230 60 248
135 0.95814340091334183 1.3903036983891548 0.74349659471585694 171 197 206 0.23982589460525244 13 179 94 234 19 225 2 226 86 183 18 145 22 217
136 0.84281432299314307 1.3992281052545241 0.34257268014826853 144 181 196 0.26864019206991901 94 235 19 239 66 212 22 213 69 204 9 217 32 208 84 230
138 0.41689757164778285 1.1923711035128062 1.1241412089685026 195 144 105 0.48413225980105312 94 242 19 249 66 172 86 228 18 196 46 221 85 171 59 207 5 169 16 191 51 235 45 260 97 175 63 168 68 188 76 188 7 209 31 221 67 242 60 160 33 175
139 0.0014309596828353719 1.1226227672916154 0.44391208178095748 141 104 76 0.69090076865433225 94 252 19 250 2 233 18 236 22 225 55 202 69 217 9 207 32 210 84 198 10 179
140 0.63737096084464717 1.2157877522260643 1.0969092847160067 55 55 47 0.41443660719833719 13 152 19 251 66 160
141 0.58884262895882866 1.2345400354563214 1.0644102856544089 198 139 101 0.31761694377275318 13 174 19 252 2 248 86 206 18 227 46 200 85 260 59 204 5 215 16 231 68 239 4 204 60 220 81 230 71 242 34 214 42 228 33 212
142 0.97514482425645299 1.8894815995426186 0.11100506810567544 217 163 134 0.32025483029830376 94 262 19 255 66 266 2 261 86 244 18 276 22 258 55 236 69 230 59 236 97 228
143 0.80545627444037993 1.2494436461264846 0.98133042457677977 154 190 203 1.7266196690749924 13 176 19 257 22 223 55 170
144 0.63751212129029922 1.2116042379930785 1.0967670853049496 55 55 47 1.0933084858620263 13 157 19 262 66 146 5 182 16 144 51 84 97 101 63 114 68 111 76 83 49 63 62 66
145 0.7629254669608122 1.2218844226445762 0.99695863836829723 95 143 181 0.96200077154393415 13 194 19 264 66 211
146 0.88000327715040993 1.7115526522695332 0.32444184031241396 6 6 6 1.7690234133046372 19 268 2 222 92 252
147 0.56835505525812935 1.669037696928924 0.087272802487529152 149 187 198 2.289275211126423 94 285 19 269 2 282 19 271 22 266 55 224 55 237 69 237 9 171 9 197 32 192
148 0.87843532869332519 1.7373605639998584 0.31577752065554637 206 149 115 0.30163100063238868 94 287 19 273 2 280 18 273 22 249 9 255 32 239
149 0.68223990699350434 1.7817746432566994 0.21013275989274832 156 105 59 0.56944768654814482 94 257 19 277
150 0.16178915421385914 1.9578678906842726 0.21867039864498941 19 7 1 0.88331996845804084 13 199 94 179 19 278 66 247 69 109 10 192 98 225
151 0.59795375946877183 1.2103136044698752 1.104954106986541 194 142 105 0.818181905970082 13 189 94 229 19 282 2 246 86 264 18 303 85 262 59 257 92 184 5 217 31 147 67 80 67 246
152 0.974076898558769 2.014007358988315 0.12246521918560997 71 39 14 1.6365320125543552 13 144 19 283 55 157 69 68 55 60 9 64 9 138 32 71 32 215 43 122 84 161 51 172 45 238 98 235
153 0.94992768097876179 2.0075475378726706 0.12440440428244197 63 34 12 0.42726817472845796 94 183 19 284 55 158
154 0.97545751101064782 1.8890465594195851 0.11018736099227568 217 163 134 0.25433810360296855 94 248 19 289 66 202 2 243 86 223 18 248 22 240 55 233 69 213 59 219
155 0.50534075878354956 1.5112281649161523 0.14246670129195654 130 168 184 0.38081654649259661 94 275 19 298 2 283 97 220 76 275
157 0.67081475758086095 1.8078973976508932 0.1981662783310873 180 120 74 0.16259271279756843 13 207 94 260 19 306 2 257 55 207 22 250 9 226 32 225
158 0.55837828172434267 1.6243231475725166 0.093844455677954325 152 189 200 0.22043755400568862 94 284 19 308 55 188
159 0.85593096102618083 1.6615460676932881 0.23592249387862901 144 178 192 0.14370780428319424 94 283 19 310 22 169 55 225 69 183 9 240 32 185 43 221 84 191 10 183
161 0.27047309338570713 1.4864390006198687 0.63234150985761028 201 139 102 1.0216092665897616 94 149 66 142 13 149
162 0.489474935082651 2.1535370667806419 0.16488440620177178 0 0 0 0.12633439336165728 94 3 66 4
163 0.33901346134201166 1.3537448786467188 1.0928496230594824 208 157 121 0.26355534768979416 66 5 5 4
165 0.78596977669180135 2.0195429151224635 0.10419790750367408 0 0 0 0.017294174811252824 66 10 2 5
166 1.0737845283994885 1.3740638995871257 1.0285408561712501 0 0 0 0.12113554860967651 13 11 94 10
168 1.0706216360989373 1.3785313376348693 1.0425645622294266 224 184 154 1.5046712165601519 13 12 94 11 9 5 32 7
169 0.5625748398950865 1.8962815629203624 0.10009476937346903 29 16 4 2.390685313245561 66 43 2 65 86 92 51 33
170 0.5911386937637656 1.8681391020921827 0.10712217117578265 223 181 151 0.47766004314703264 19 52 66 59 2 80 86 76 18 79 92 104
172 0.10177295283117169 1.5211585347499137 0.59108317550580713 2 0 0 1.5766509273016198 13 63 66 71 2 264 86 126 18 281
173 0.024501528102690625 1.1336680118062989 0.45647797531844059 181 176 172 0.51909905943034718 94 71 66 76 22 75 32 62
174 0.33438574119838088 1.9668943423886946 0.20677344227053124 85 51 25 0.020281642958060432 94 52 45 37
176 0.065885645380673846 1.9323965586369429 0.23296373386164762 37 19 5 1.1921629673213454 13 53 22 46 55 21 69 28 9 23 32 21 43 60 84 21 10 42
178 0.70094725637124311 1.4507032922616585 0.19544155821379228 126 173 200 0.2224113247592534 19 83 66 85
179 0.141436827005751 1.3652982075596096 0.82617944402092014 0 0 0 1.6997985093685077 94 152 66 86
180 0.67047157589689177 1.2675529238260339 1.0082274047592124 45 66 79 0.55123216138527464 66 87 86 205 45 182
182 0.70112752163469849 1.451329297278545 0.19705277338194835 126 173 200 0.21110249796142957 19 85 66 98 86 85
183 0.99106254687321438 1.3982022594209242 0.78515716247792933 185 206 204 0.46808668884785104 13 117 94 200 66 105
184 0.38760146808602591 2.0038954783257181 0.2207687926715419 0 0 0 0.38294871286873722 19 176 66 128
186 0.45209726311492449 1.4635177606732366 0.42104570761174004 39 100 126 0.27052676061730901 13 165 66 140 51 211 45 136 98 133 54 169 15 203 6 132
188 0.85557905137603585 1.8358843612402558 0.16659570972041182 237 206 181 0.31562699782484616 13 171 66 148 22 158 55 129 69 136 9 147 32 144 43 145 46 188 85 203 59 211 92 248 4 189 60 182
189 0.5583206597063114 1.7712014004231662 0.10623393916106806 2 2 2 1.238379280707242 13 122 66 151 45 119
191 0.31636842143102506 1.8267448631944718 0.1728435637221527 201 139 101 1.2266400464095539 13 147 66 154 18 200 46 211
192 0.32036973634041477 1.8215765008014086 0.16171453548031159 201 139 101 1.7215737224740277 13 146 66 155 18 205 46 216 51 177 95 268
194 0.70766179777829241 2.0215330387580748 0.17427448354988218 86 51 24 0.49648576010498641 94 126 66 161 22 77 69 74 9 67 32 74
195 0.87556350359189017 1.9154517954497736 0.079026501063794455 204 150 107 0.47925192457528609 94 167 66 164 55 131 9 146 32 143 84 135 95 286 98 176
196 0.46480969254962617 1.8266946855599762 0.15823796552576536 114 66 28 0.16469825591641457 19 200 66 166 9 227 32 214
197 0.030469363469393624 1.8249223424126899 0.14830942433397207 1 1 1 0.01874443688656828 19 159 66 168
198 0.74139537096033059 1.450546094063935 0.23452165836498276 187 211 220 0.22410231905208133 13 220 19 146 66 177
199 0.40151041953481686 1.2329307450216704 1.0542275995808221 212 172 139 0.37400502681474912 94 201 66 179 86 208 51 228 67 257 71 215 34 181 56 211 33 177
200 0.40035197341189221 1.2331010077676778 1.0551980013644202 212 172 139 0.34819205566795364 94 225 66 184 86 226 51 227 45 259 67 256
201 0.6921124105851818 1.356059063086861 0.35124400874348816 187 170 161 0.34401310232150212 13 159 66 186 2 231 18 239 51 203
202 0.76418539637713534 1.3184052206376875 0.37110800130069654 191 213 220 0.36450129952592902 19 208 66 208 2 188 86 186 18 214 22 234 46 196 85 199 59 134 92 203 5 151 16 210 31 161 67 165 58 177 4 192 60 192 33 240
203 -0.26678297896271891 0.79565755871960808 0.44479099779173481 105 72 45 0.91790418239960836 94 251 66 224 9 205 32 197 84 199 51 199 45 227 95 200 98 167 50 159 54 135
206 0.048045804429979536 1.7173131133707566 0.28167493847431607 0 0 0 2.3856617381788796 94 43 2 23 18 25 46 29 2 71
207 0.47906363921926132 1.5436073710946598 0.12713802804264779 179 200 207 0.71172828994762172 2 26 18 30
208 0.70933434176553101 1.5229163366872074 0.12864140693153567 217 209 203 1.0615089944025808 94 44 2 38 86 32 18 47 69 29 46 42 85 49 92 36
209 0.60765861646208752 1.2279104547389472 0.84757536436514969 201 144 107 1.8135056737444151 19 46 18 23 86 22
210 0.98273645969677537 1.9775316253278044 0.1121780982221304 1 0 0 1.5908653889998741 19 31 2 54 86 77 18 101
211 0.84895914072805967 1.7688879147177017 0.28116348857095502 230 191 165 1.1095852153591435 66 54 2 55 18 60 46 76 51 75
212 0.93642827576513699 1.3890580565637887 0.71826885268904517 125 162 184 0.33945195426651875 19 43 2 61 86 56 18 58
215 0.17344259091709494 1.9610446356009794 0.23067905919725204 110 65 31 0.94154530418994287 19 87 2 102 18 132 22 69 55 58 69 63 32 69 43 48 84 67 10 61
216 0.58930183683477833 1.752407343789256 0.11105537421132473 1 1 0 0.60651476399784154 13 75 2 108 86 146 69 62 94 156 9 59 32 73 84 52 10 62 98 130
217 0.96307464716605518 1.4945707188840989 0.62480480526373361 174 202 213 0.88442414949631842 19 112 2 117 86 156 18 133 22 89 55 85 69 72 9 65 43 85 92 131 31 66 67 81 58 85 61 72
218 0.58996685695403195 1.7515622817740086 0.10707546743963819 1 1 0 0.52965098436186464 13 90 2 135 86 149
219 0.26036240208609424 1.6712184348835137 0.37571472294487479 214 178 147 0.59461615736138784 19 137 2 136 86 101 45 99 98 96
220 0.19764647596721518 1.9655133421622963 0.22618715715413512 0 0 0 0.7804298221751822 13 102 2 139 94 88 55 155
221 0.88707774100869008 1.2140650334487419 1.078635929226353 153 183 187 0.18878672020033369 19 162 2 153 18 152
222 0.32924433318977464 1.163616582791388 1.1539638233156264 215 170 132 0.86299725428063312 19 119 2 159 22 135 55 67 32 101 46 136 85 115 59 80 92 150 5 143 16 95 97 122 63 138 7 105 61 96 49 144 62 134
223 0.99848132802154188 1.4090367826207426 0.75851494724680213 126 146 117 0.90956424074113984 19 230 2 161 86 185 18 143 46 195 85 210 59 188 5 162 16 284
225 0.99860901052850315 1.4083436030862846 0.75712140494879021 126 146 117 1.0731488535430445 19 260 2 169 85 182 59 197 5 168
226 0.90537950065552442 1.5829676927753473 0.3934567553325356 5 15 21 0.25584603682010115 19 194 2 183 18 260
227 0.29550240738273825 1.4882034520009115 0.48600945101436682 200 140 103 2.0194290174126004 19 197 2 189 86 171 18 212
228 1.0043664359637341 1.4865349340428635 0.66471659555787865 168 149 136 0.30257255973860703 19 240 2 209 92 215 67 156 31 154 58 133
229 0.9988117478737969 1.490237733114337 0.64535908395257602 184 156 138 0.57022869451230751 19 212 2 210 86 256 18 294 31 238 58 136
230 1.0015371174513157 1.4775203271522237 0.6709351116725546 172 199 207 0.27802897373928082 19 314 2 237 18 290 43 181
231 0.60887132536028721 1.2134900146132572 0.73365478555725328 197 139 103 0.42653630536306975 19 266 86 117
232 0.89744302256738417 1.48856287240438 0.36837703717911446 161 195 209 0.26255349752530149 19 235 86 265 18 300 22 215 69 193 10 166
233 0.55179859624561334 1.8742489133821267 0.1100597459381641 201 143 105 0.16146245571569129 19 291 2 281 22 252 55 208 69 223 9 229 32 223 84 210
234 0.64447785768012733 1.4486094989984677 0.17271635878068117 131 168 194 0.3392330806700764 66 253 2 284 18 285 59 280
236 0.11138916022033556 1.5501602786897808 0.59761111172510306 206 158 121 1.5164592344084942 2 72 86 68 18 119 22 39 69 18 43 37 46 105
237 0.89080718158064898 2.0436936735432498 0.16576095341411129 63 35 15 0.69651812808054403 19 79 2 127
238 0.56000057660979885 1.8532856995062033 0.13098537850972422 207 150 116 0.1643690941738869 19 108 2 164 18 114 22 145 43 143
239 0.20678006066185528 1.8512514217821687 0.070490344166878785 0 0 0 0.94294937003844914 2 10 86 11
240 0.7954814151689158 1.6320241015298886 0.30673859618273269 174 206 215 1.7095828383354312 2 8 86 14 18 14 46 14
241 0.26974439628455221 1.1882341384392265 1.1228492440811302 211 166 131 1.5548271327074146 2 14 18 21 46 15 85 11 59 11 92 14 5 12 97 16 63 15 76 20 7 29
242 0.81181781026989175 1.598979674302025 0.26221162057338065 174 206 215 0.94875416891523756 2 9 86 17 18 15 22 9 55 6 69 6 9 8
243 0.59548288129335325 1.3878606482972746 0.33871156655256868 195 165 151 1.7889871359466354 2 15 18 19
244 0.69436640119840864 1.3112318043304805 0.37842772357692456 184 210 217 0.37786665305874273 2 17 86 20 46 17
245 0.09784793429571069 1.8405306289066035 0.13019247832625813 17 8 3 1.4934932209359768 2 42 86 25 18 40 55 41 43 59 46 31 85 50 92 63 97 40 63 48 67 48 76 51
246 0.98649930146605913 1.4320652568165688 0.71374716871142341 178 203 203 0.35138966547392381 2 43 86 33 18 34 43 28 46 33 85 39 59 43 92 34 31 24 67 30 58 24 4 32 60 48 81 44 61 29
247 0.96453082042385396 1.3827025449231884 0.78940683310672177 177 202 201 1.2535696762924697 2 44 19 37 86 34 18 31 46 32 85 40 92 25 67 21 31 14 58 28 61 30
248 0.83381087824187117 2.1813183428354068 0.40686228900567939 230 191 165 2.6745585755946371 2 36 86 36
250 0.94691289899932662 1.4415491663556419 0.65743516102125588 134 176 190 0.27105893331594194 2 59 86 41 18 56 46 56 85 41 59 44
251 0.84837458189703696 1.8937842627865726 0.079629466494021112 228 188 161 1.6542195390412255 2 83 86 44 18 100 59 110
253 0.44937406672593938 1.5260719497510253 0.17491754026229672 189 190 189 0.52926240543036018 2 69 86 49 18 63 46 55 85 46 59 41
254 0.94798788199237927 1.437765682439335 0.6554512375728796 134 176 190 0.44808439377948478 19 48 86 50 55 75
256 0.93635505618095816 1.3877747774094502 0.71574494702032632 127 164 186 0.41273364141534197 2 62 86 57 18 59 22 72 43 76
257 0.76498716391284449 1.2048459574246695 0.87585731635305941 165 198 208 0.54352354175026441 2 50 86 63 18 39 46 24 85 17 59 26
258 0.19537579701849583 1.2159554437874858 0.96948143929023844 0 0 0 2.1207129766442185 2 74 86 65 18 84
259 0.20584234536498242 1.1677238863679027 1.1616412775550897 1 1 1 0.036864926426177537 66 183 18 157
260 0.90290626920302519 1.5401713618318946 0.58079772525404005 2 6 10 1.5473973701032711 2 39 86 70 18 44 22 52 43 42
261 0.61278831586401494 1.4651630098192259 0.16027638482497458 149 186 201 0.84119528221625917 19 49 86 71 43 91 46 62 59 45 51 48 45 52
262 0.73395986397377944 1.4813313607092866 0.1918834669517035 117 164 199 0.30669226042439385 2 84 86 81 18 81 22 63 43 58 46 81 85 77 59 74 10 47 92 76 31 61 61 58
263 0.35195852966947433 1.7687381803771651 0.22698553299352525 207 162 127 1.276267876062066 2 116 86 88 43 104
264 0.53495814977972878 1.8696340566648537 0.10557370353140512 223 186 154 0.36575018495436229 2 106 86 91 18 102 22 71
265 0.67389604320435392 1.8728004698632368 0.087854687873742357 225 184 157 0.5489787046962783 2 81 86 93 18 99
266 0.86066005087306119 1.9288340041034737 0.078832504182661856 14 4 1 0.60538488284462211 2 90 86 96 18 170
267 1.0223630310313343 1.9950170631632012 0.14333496712109445 174 119 77 1.1502504161551279 2 47 86 97 18 80 22 27 55 26 69 27 43 23
268 0.80544375550897318 1.2655161122687353 0.94408058023148789 149 187 200 0.98126701095681845 2 53 86 105 18 66 46 98
269 0.48430891572063939 1.7210158074177913 0.088722806766417667 157 179 187 1.6363753160828169 2 125 86 110 18 131 55 40 69 50 19 44 9 40 32 47
270 0.19592135813274775 1.329077120724991 0.47494807024588365 0 0 0 1.6769541758149336 94 162 86 112
271 0.83488313601808539 1.2592174076065616 0.98684995391058594 129 167 185 0.54857820832844251 2 152 86 119 18 116 43 88 46 206 10 66 92 125 31 118 58 87
272 0.96762818517016047 1.446387476598785 0.65986526226489672 166 195 204 0.28478318506856565 19 158 86 120 46 156 59 155 31 156 58 140 61 110
277 -0.078136383735560616 1.1349641865380744 0.64630864551402856 0 0 0 0.23279270685597311 86 134 69 216
280 1.1664243471298454 1.4064685549825373 1.1299092885580662 106 64 30 1.525290888093157 2 119 86 161 46 232
282 0.83221511648877933 1.2797929704941868 0.98075476115278015 100 86 72 1.2603342224866545 2 151 19 141 86 167 18 151 22 100 43 114 46 240
283 0.87058451370834256 1.2315452189086176 1.0329030263745109 150 183 191 0.2969256653790156 13 190 86 168 18 139 46 203
284 0.88068637983894804 1.604359872308136 0.4040860263007891 0 2 4 0.24108598296185801 2 137 86 177 18 198
285 1.0103550488937445 1.4511683039683538 0.69293973429691547 178 203 207 0.38639996206122018 2 166 19 165 86 178 18 165
287 0.92498386921674425 1.3801656537990143 0.73257992304843722 111 154 179 0.31350825275510907 2 196 86 188 18 223 43 185 22 216 46 159 85 214 59 149 92 161 5 171
288 1.0095239277373127 1.4536899245671064 0.69767124611048681 178 203 207 0.38959191773271545 2 140 19 151 86 189 18 141 67 139
289 0.9227726083464185 1.5667830919873926 0.43065417150444912 123 166 187 0.71871143752945699 19 143 86 192 46 140
290 0.88068637983894804 1.604359872308136 0.4040860263007891 0 2 4 0.24108598296185801 2 138 86 193 18 185
293 0.8165614003378977 1.257810172677289 0.97153088362496509 100 146 172 0.28718349696061418 2 265 86 211 18 232 43 195 46 204
294 0.83174178808481669 1.3005721213662889 0.99262262220654751 214 169 133 0.54678716026836571 2 190 86 212 18 211 43 113 46 239 85 248
295 0.86638787926666583 1.8910645252256577 0.089413307081824794 218 166 134 0.35792923204476057 2 242 86 221 18 275 46 244 59 240 16 254 97 239 60 256
296 0.33908539534834992 1.1774296664817192 1.1420657949699575 177 115 68 0.28964068325790004 2 240 86 229 18 244 85 235 59 256
297 0.58734827311553017 1.7981870246395413 0.162367532891456 159 109 62 0.92977724345455148 2 252 19 187 86 236 18 264
298 1.0151450166141751 1.9374407997401275 0.092473303982902294 186 126 81 0.7541508082742806 2 263 86 247 43 100
299 0.36912927778493043 1.6163606438010101 0.41801164551659697 197 139 102 1.4977632172564903 19 296 86 253 46 107
300 0.54216168935149212 1.4740030076411474 0.24566521531727126 180 203 208 2.0398649761997683 2 11 86 7 18 11
301 0.8583115163930608 1.6292182326495706 0.24872863511835744 162 196 207 0.6621567864046074 86 47 18 45 46 68 85 128
302 0.94780194815865748 1.5531884231754147 0.59080906636013997 230 190 165 0.71692986585990293 2 57 18 53 22 53 55 52 69 48 32 65
303 0.4841505911538278 1.787873429162304 0.1465371943051679 0 2 4 0.59155973465515554 2 56 18 54 85 90 59 109
305 0.90743352301697489 1.7023335633873669 0.28814294296560017 228 188 162 1.1606944822752021 86 90 18 89 9 95 32 121 46 131
306 0.87838172566594486 1.6882217051653632 0.35042978362828298 165 196 208 0.15196130187849977 2 105 18 91
307 1.0715103706447842 1.2688070518556638 1.0811510266533149 210 167 133 1.4572163405957836 19 96 18 96 22 95
308 0.912698421004699 1.5277144466189851 0.39032412157149599 167 199 211 0.79896562172052965 86 99 18 97 46 114 85 157
309 0.98466226349902597 1.2570741739958609 1.0763277065388253 216 179 151 1.1036195289007058 19 122 18 115 22 99 69 121 59 71 63 129
310 0.1087767483372603 1.580861735727709 0.33433678971739222 0 0 0 2.4615078815799087 86 125 18 148 46 124
312 0.95940191669520036 1.3930743041144982 0.74460222478952787 170 196 205 0.44453056860137619 2 203 18 163 46 127 85 161 59 174 92 212 67 144 31 116 4 112 60 140
314 0.70359819289661707 1.7106947055641468 0.14371645781562503 98 154 173 0.55358357173434369 19 94 18 175 46 226
315 0.87805545816333641 1.6142549793377254 0.25320060284224361 176 202 212 0.20973384593941111 86 195 18 176 46 185 85 220
316 0.88169333870531552 1.6739994195924603 0.26940472529387904 124 164 180 0.5254776289348092 2 178 18 190 92 173
317 0.45131656708776507 1.4649243521845148 0.41813558780496968 44 102 128 0.12008022677061501 86 184 18 213 46 164
318 0.91972607144180707 1.3694213927373731 0.72064700420657313 151 186 201 0.99479636424949258 2 266 18 215 31 281 71 260 34 233
319 0.91869813353181839 1.4081597419183989 0.72607061627951974 153 187 202 0.4589018857414528 86 210 18 221 5 98
321 0.89711837017969687 1.3633228601077145 0.84718740896414024 216 170 137 0.60487653508600847 2 229 18 235 46 129 85 164
322 0.83306401409243425 1.6268811174496638 0.21254375281358237 137 180 195 0.23720305606069339 2 267 18 265 22 268
323 0.75398310795350343 1.739841187652486 0.21733111937960281 74 132 156 2.2748729863079973 2 254 18 266 92 204
324 0.99217775666232044 1.4861233349449854 0.65787354245107488 173 199 211 0.51391785834170034 2 268 18 282 22 166 55 140 69 112 9 196 43 218 92 251
325 0.65236155616426805 1.4257023434348997 0.068106875771325445 0 0 0 2.0566392481832034 19 293 94 240
326 0.53390839504338183 1.5461608838094556 0.11320518296820624 139 183 197 0.14615132881368706 19 303 18 288 22 191 43 186
327 1.0120689287435847 1.4791135887590119 0.67815197444800512 181 160 145 0.3083701117129663 2 251 18 291 92 216 31 171 67 230
328 0.94976576725442396 1.4907281885930366 0.60188135776692342 105 159 177 0.26467029321346908 2 228 18 292 22 185 69 179 9 195 32 188 92 246 31 222 67 254 58 188
329 0.75605960952160101 1.1811339235314675 1.1224352979469321 1 1 1 1.6344578502870712 19 97 2 93 18 61 13 61 19 42 66 48 2 49 86 58 43 47 46 45 85 42 59 32 92 84 5 47 16 38 51 80 45 107 97 51 63 53 76 67 31 49 67 68 58 53 61 85 49 73 62 76 72 102
333 0.71914093360102005 1.6739572637249567 0.1463715794439841 131 179 194 0.97493556632807044 94 26 22 11 55 8 69 14 9 14 32 12 84 16 10 9 13 31
334 0.62448828695837744 1.7561664579644112 0.12271742722830803 0 0 0 0.99916145149488111 94 23 22 12 43 12
335 0.55769083280171006 1.7347351142361265 0.097901260924289343 162 186 193 0.75323286888711827 94 45 22 36 55 29 19 40 69 34 9 28 32 35 43 44 84 24 10 40 45 75 98 80
336 0.50498151707103467 1.8970290165766683 0.10428478579929065 27 11 2 1.8894710586626093 2 107 13 37 94 39 22 45 69 53 43 36 84 48 10 46
337 0.88389429875092917 1.6067771946015026 0.41198804781842535 0 1 2 0.11817147739401931 19 111 22 65
338 0.82766177900296456 1.6939799890916152 0.22221926551552804 111 154 172 0.25506358208157082 94 95 22 68 55 56 43 52 10 49
340 0.51419030036153734 1.8141457809119246 0.15403354079801074 206 153 117 1.6799231958626801 2 134 22 86 69 76 55 63 9 86 43 90 10 122
341 0.26481507394011411 1.8368240852998956 0.14175159312175875 210 159 115 0.21906843059159337 19 133 22 110 69 103 9 93 43 140 10 117 51 118 95 140 98 118 50 106 54 125
343 0.012171148731520707 1.0724940462889347 0.47084004451725514 151 113 81 1.4750761670891377 13 115 94 214 22 133 69 172 85 94 59 95 92 93 5 144 16 197 60 113
344 0.55183618939506063 1.5975741871767555 0.096247251707298781 151 189 200 0.31453541553971365 18 199 22 153 69 178 9 178
345 1.103276680236311 1.5913170675909696 0.57284011965588943 202 155 119 0.37293753846231703 2 277 22 164 69 182 10 194 31 175 67 234
346 0.94757095904134103 1.5209385586474642 0.59736903216802073 11 17 21 0.47026694125847079 18 296 22 165 55 134 9 119 32 129 43 232
347 0.35640942074463805 1.8338754929530769 0.137397995616824 223 181 142 0.49663064120826078 94 219 22 170 69 151 9 228 43 222 84 211 51 176 98 233 50 195 54 192 7 193
349 0.80982969800284321 1.3630605634415682 0.31616073629966895 136 169 185 0.77987921005091343 66 206 22 207 69 205
350 0.8100326386547283 1.2428272711872943 0.96829516583375053 103 149 176 0.46416881981748065 19 265 22 232 43 163
351 0.56689706636378212 1.6425028014967025 0.081292114964693171 149 188 199 1.852874215636841 19 292 22 271 69 198 9 198 22 280
356 0.77980561679745342 1.5713337117381743 0.420341986134181 171 204 214 1.6967019322784769 22 1 55 1 32 0
359 0.79098907079382152 1.5073674169770561 0.2179251757442216 176 208 216 0.43930387268580268 94 40 55 22 69 17
361 0.039468916221462369 1.8134794376107868 0.20816151393875748 218 175 140 1.798188113875635 22 32 55 34 69 51 9 50
362 1.1565814607841431 1.2859517896739308 1.0549228988423551 207 165 130 1.0355269293465206 66 37 55 61 5 52 16 67 13 73 97 65 63 61 68 71 76 100 60 36 49 101 62 100
363 1.1623407175714784 1.2835952076507662 1.0449277026426194 207 165 130 0.69829734006233446 22 35 55 62 10 95
364 0.97678791182906133 1.519093069471833 0.59323872061587168 230 190 165 1.4877657754460993 94 148 92 130 31 83 67 97 58 86
365 0.68295264902747188 2.0059665181667174 0.17378688403144216 68 38 16 0.82176027970104282 22 106 94 129 55 69 13 141 69 64 69 75 9 73 32 75 43 127 84 75 10 88 53 105 6 111 11 80
366 0.65678004432005532 1.976676731631799 0.14149184700492315 135 86 46 0.44463040933111564 19 172 55 70 69 78 43 128 10 94
367 0.19258048220174093 1.935115525105805 0.23727907883950761 36 18 5 0.67072777465644473 94 132 55 82 9 90 32 80 84 84 69 191
368 0.96616688246838323 1.4954779792832364 0.61731127441232658 168 198 212 0.44630736968498014 22 80 55 89 69 89 9 55 32 98 43 96
369 0.89190260559968526 1.4589684489899037 0.37683618474075586 171 201 212 0.17566325951362818 22 90 55 90 69 98 9 122 43 92 10 74
370 0.67233197300352421 1.7148552499003944 0.1247861890204648 62 130 153 0.044558709290664023 22 109 55 95 43 139
372 0.55717358444015874 1.767000640738579 0.10348686615020297 1 3 3 0.19593398629450884 22 126 55 111 69 93 9 110 32 119 43 179 84 128 10 116
373 0.85394102043022668 1.2541971711240363 1.0167521639615522 125 164 179 0.45564678273997972 22 138 55 118 43 192
375 1.0095865480131971 1.473743065068154 0.71038259736870946 158 122 92 1.1762358111975337 22 130 55 138 69 180 9 176 32 187 84 171
376 0.92682280270348893 1.5177626722759643 0.59395075044248058 128 162 182 1.7232052707142944 22 78 55 144 69 113 43 69
377 0.80271081836797087 1.7063171985713705 0.20663818826141384 84 134 154 0.1542867228334425 22 173 55 147 69 141 9 112 32 123 43 157 84 113 10 109
378 0.57953823735034671 1.8023103751465641 0.20420810231114286 127 82 40 0.16762661303379744 22 175 55 152 69 152 9 224 32 184 43 215
379 0.58977604512804538 1.8207168828015787 0.17506260068927099 170 112 66 0.48650234329851139 22 180 55 153 69 153 9 155 32 152 43 170 98 238 45 169
380 0.72892558176244782 1.9761457897919412 0.14346977632326946 67 42 18 0.34484413930321361 19 288 55 159 9 140 94 266 32 141 84 107 51 267 45 188 95 272 98 161 50 202 53 137
381 0.19755761013258788 1.9690546967542017 0.23780131952617692 0 0 0 0.68238032376587865 94 91 55 160 13 106 32 108
382 1.0071187641109423 1.9296127911651551 0.081027120429497251 69 33 10 0.19532138132924309 19 287 22 178 55 163 69 161 9 161 32 158 43 209 84 153 10 195
383 1.007173460239047 1.9295297604057975 0.081202559640621966 69 33 10 0.18920571985499404 22 188 55 166 69 185 9 165 43 201 84 162 10 186
385 0.17775966882105693 1.2720880882323309 0.92961836913023266 0 0 0 0.54954497801636792 2 160 19 218
386 0.87959736926737808 1.2368509584350227 1.0848906639279627 1 2 3 0.85267584714938072 22 137 55 171 43 194 10 80
387 0.99320875592437252 1.3951382310107578 0.77518874734046084 186 207 202 0.31871016181828626 94 206 55 174 69 176
388 0.52428743729888683 1.5373845703301889 0.11352892231195383 185 208 216 0.1294233654176441 19 301 55 176 69 194 9 191
389 0.95863743335204177 1.5095001082850432 0.60645597708141075 141 175 191 0.25211044649131226 22 254 55 185 69 169 9 179 32 190 10 127
390 0.80982969800284321 1.3630605634415682 0.31616073629966895 131 166 183 0.77987921005091343 22 238 66 210 69 215
391 0.88142067482299002 1.2299135884580485 1.0483086417149627 129 164 169 0.56076164342527801 22 190 55 192 69 122 43 196 92 267 31 248 58 127
392 0.70194594330302451 1.5256172873531408 0.12069892061157199 193 193 192 0.41064517132180284 94 245 55 195 32 202
393 0.85590680301735655 1.6613553220437607 0.23634229572355681 143 177 192 0.094914094947975314 22 183 55 197 69 164 9 211 32 204 43 199 84 176 10 210
394 0.99834384524205388 1.9502084580380945 0.088746054724597401 73 40 13 0.22177133757661482 22 259 55 213 69 250 9 234 84 227
395 0.85992659089817391 1.8945556236470538 0.078284701140839005 233 197 166 0.10386488776557014 22 241 55 217 69 226 84 208
396 0.92044564647898419 1.6505351041399052 0.32477859942724263 116 154 179 0.3451884867239321 22 127 55 220 69 184 9 189
397 0.85495034643358425 1.6805382883538011 0.24098947290185488 160 184 195 0.085721401500378561 22 274 55 227 69 167 9 242 32 195 84 183 10 205
398 0.82947518295742484 1.6896764565853983 0.22156426522057346 124 162 179 0.12455343288843043 22 275 55 229 69 245 9 243 84 181
399 0.89258393441733375 1.682311384534082 0.28787184557882434 68 121 146 0.094422373213389268 22 278 55 230 43 216 10 193
400 0.860699292441508 1.6935320473417441 0.25436241215271876 79 127 151 0.13607573227322878 22 245 55 231 69 190 9 182 32 168 43 217 84 150 10 135
401 0.42942521342247814 1.6882468043061201 0.11314912379668164 125 136 146 1.3910036938996215 19 280 55 235 9 199
402 0.71384286042129763 1.5035002931135988 0.13938413250206216 193 193 193 0.85225295076373442 94 144 19 142 2 143 86 151 18 179 22 105 55 115 55 145 13 217 94 212 19 193 66 254 2 270 69 99 9 123 32 117 43 108 46 152 84 122 85 139 59 144 10 102 92 209 5 157 67 178
403 0.21703456932299237 1.9691678103980339 0.23664431162207561 118 77 41 1.0263330911557409 19 130 86 196 55 64 94 130 66 153
404 0.44202156802348103 1.7133759893817528 0.10316515669236204 0 0 0 0.34371588990919671 19 73 55 54 69 61
405 0.77778446245829091 1.7138962937499704 0.18979732907865474 59 117 141 0.021329831896634916 22 286 55 234
406 0.18780456424534206 1.7414249595922664 0.30281817920052051 213 165 131 0.98746315772984905 55 3 13 5 94 5 69 4 95 6
407 0.18780456424534206 1.7414249595922664 0.30281817920052051 213 165 131 0.98746315772984905 55 5 13 4 94 4 69 5 95 7
409 1.2093057867801489 1.3603975466966456 1.120062018534369 0 0 0 1.6136814556653869 86 52 69 9 84 14
410 0.96136275255608039 1.962971079846564 0.097806897278072 0 0 0 1.6305251791231983 22 15 55 14 69 11 9 15 32 20 43 22 84 11 10 10
411 0.83469426566734439 1.6790889004836231 0.22439786502387263 123 167 184 1.3918620660673606 55 19 69 19 9 29 32 41 10 22
412 0.20030410235314158 1.8672908295531978 0.15961935284856396 5 1 0 1.0521484658915026 55 12 69 21 9 16 32 19 43 19 84 12
413 0.24404990306870222 1.1883436248710375 1.1504642738025626 211 166 131 1.6249292132348583 55 13 69 26 9 34 32 15 43 16
414 0.92371271928504084 1.5956816178369688 0.35343905843781132 0 0 1 1.3948590292542122 55 53 69 32 32 125 9 85 43 50
415 0.053654087063875477 1.8130967848508448 0.17185857853290862 217 173 138 0.42622836763178978 55 33 69 47 9 46
417 0.81866219566626941 1.1918134027141452 0.86934668766280299 0 0 0 2.0297787982654523 55 79 69 54 10 34
418 0.74129621595340423 1.4562781371896392 0.2226241248004725 173 206 216 0.50249583081315774 55 50 69 57 9 82 32 99
419 0.9279449618794634 1.5391211304177821 0.53219092058962425 2 2 1 1.7401166889977595 22 55 55 84 69 59 43 35 10 23
420 0.96646287388214591 2.0161475003519818 0.12658262325143194 75 42 16 0.61777260097292852 55 59 69 65 9 63 32 70 43 126 84 69 10 89
421 0.93858862931189291 2.0469913870443182 0.14917584033286788 64 36 16 0.20281698191505959 55 94 69 73 10 124
422 0.19524269069041661 1.892997030922259 0.2000423462488696 18 7 1 0.71427585775842228 22 172 69 77 9 70
