# 3D point list with one line of data per point:
#   POINT3D_ID, X, Y, Z, R, G, B, ERROR, TRACK[] as (IMAGE_ID, POINT2D_IDX)
# Number of points: 333, mean track length: 5.6898450405097147
10548 1.452199290619 5.1314280818945566 -3.6763549591602973 131 118 113 1.8646670087386603 129 1030 142 1224 7 627
10549 1.452199290619 5.1314280818945566 -3.6763549591602973 131 118 113 1.8646670087386603 129 961 142 971 7 648
10550 0.13833302283170293 2.720317788205175 -1.3009762963815614 222 201 216 1.4683982209206028 61 788 95 662 7 653 67 364
10551 0.32820443076097594 2.658776651996789 -1.4650682825662225 105 51 44 1.6462158025055385 9 906 61 863 7 654
10552 0.24413355608347834 2.97109969448621 -1.5096057849324529 51 11 14 0.14156924388425263 9 836 61 786 7 658
10553 0.36989802789047982 3.0085324588822764 -1.5070194004341613 105 53 48 0.29997025761040108 9 832 61 784 7 663
10554 -0.34230835791111258 1.8930870564917419 -1.399995511272863 90 105 100 1.6551775498504222 61 657 7 676 9 991
10555 0.2515495395862099 1.6865679128260744 -1.4392295605486976 69 68 37 0.061023323182761269 9 606 61 523 7 698
10558 1.4698503567977799 5.1599503690614954 -3.586456834347882 128 115 110 1.6538119814267815 129 966 142 973 7 763
10559 -1.0064010122921214 2.6549594267355561 -3.1922365974228808 104 125 160 0.33566133488929289 112 853 122 844 7 785
10560 0.41828285790633762 1.5378301717257796 -1.4793313616279515 97 135 70 0.081382231153464241 9 692 61 633 7 805
10561 2.6578318434893347 2.5283686333295159 -4.3763814152672271 77 84 96 1.0041327375547617 14 946 129 713 142 878
10562 2.7744285901283052 2.7854791333950746 -4.7600287827538539 139 148 161 2.5216368974991283 9 555 129 676 7 836
10563 0.069843537294881561 3.0469259357034204 -1.4746175884216155 24 41 19 0.1443298277944671 9 975 61 783 7 875
10564 0.34717975949190172 1.6786771841913093 -0.76371704506908067 105 150 98 1.7547576243577809 9 951 7 934 67 363
10566 0.17744291203560991 3.0762421845591592 -1.3631269431033801 88 57 70 1.2445252361910439 129 1000 7 985 63 1282 79 1337
10567 1.5011078478556963 5.2278790175078678 -3.5587889191189808 133 120 115 2.0990953950868936 129 1017 142 1256 7 997
10568 0.40720210282992653 1.7196573895183798 -1.2214541836359798 120 169 99 0.11125748054854039 9 969 61 656 7 1001
10569 0.19112772582376353 1.9131155655977661 -1.4351488672286992 186 227 188 0.81634476846517112 9 576 61 386 7 1013
10570 0.1641072551584834 1.906624183911217 -1.4331055945226467 187 224 189 0.75202730145576024 9 574 61 385 7 1014
10571 0.36368418527855423 2.0066824216460768 -1.0724046916890577 105 152 100 1.6793630374753441 9 983 61 821 7 1056
10572 -2.2746391062121587 4.670196476672138 -4.977425565573669 85 68 54 2.2217509685189176 14 625 95 551 61 314 7 404 115 482 129 1055
10573 0.16184641229295088 2.0344993062178154 -1.5700507120843636 70 51 36 1.8125548071506323 9 372 61 277 7 373 129 136 117 103 122 184 95 290 81 244 24 185 72 150 75 84
10574 1.2471571363539333 2.9303842436661904 -2.4068182826390383 164 142 134 2.0639743181804846 129 1 7 4 122 1
10577 0.17934979647676025 2.4295152018067427 -1.744309970104323 120 65 58 1.1138578696330732 9 158 61 87 7 218
10578 1.9223572823921085 2.26054592381207 -4.1355154821666797 51 65 88 2.5317138444261622 9 331 61 262 95 364 7 320 81 233
10579 3.009446197470306 3.6380595208931825 -4.6736560120765445 0 0 0 3.4756840648237981 61 280 81 369
10581 0.16107070479163996 2.1203889840973189 -1.6678312473311812 169 211 178 0.42082624174835731 9 630 61 658 7 957
10582 -0.11802347995839642 3.7162401295099512 -3.2457460068685422 165 137 124 1.2181262565496433 14 0 24 1 46 1
10583 0.61475767032087847 2.4289028907868135 -1.4815460090815387 19 7 9 0.86751398962431359 14 12 24 13 30 13 15 18
10584 0.38697085472436643 2.4627621811160583 -1.6875424819931437 57 95 37 1.7251589406871839 14 26 24 26 30 29 46 17 58 20 15 27
10585 3.9282431560212681 4.5808799874413753 -5.8986592622436813 123 88 73 1.2289725022577549 24 27 30 30 58 24 62 27 15 44
10588 4.8502837144968076 3.6813353897624408 -5.7288093990601618 57 41 46 1.1383466037729284 116 30 24 35 30 36 65 36 15 35
10589 0.58355067989658116 2.6330477873108542 -1.4562470123704789 214 126 119 1.5778436445920727 24 44 62 19 63 28 58 41 68 26 64 26 59 29 15 42
10591 2.981118046130605 2.303245067340399 -3.4648018070263573 131 137 151 1.7415071501464821 30 41 46 26 58 18 62 39 64 54 66 41
10597 3.2338872928773452 3.3585364236764299 -5.3588783905239428 123 118 136 0.37895447319115283 120 117 24 225
10598 -2.9559261048032979 2.3646440826413606 -6.4152995838066174 118 128 148 1.5331234944309198 14 165 24 229 73 266 75 440 142 212 129 232 79 239 78 350 15 193
10600 -0.42082487541245078 1.8784903631183105 -1.3736687330058894 140 106 84 1.6248790266058095 14 156 142 337 24 237 46 135 15 161
10602 0.79512428073111174 2.3225847976802974 -1.641993600867369 100 128 87 1.1525619538410639 14 195 24 317 30 352 15 210
10603 -0.83755715097510186 4.4678697772844114 -5.3404779465981873 145 119 105 1.3133074435615519 14 190 24 326 30 330
10604 0.77258293160075642 2.9756336005139432 -1.723728785514246 160 111 95 1.3097859298020909 114 102 24 352
10606 -3.0565784293886047 3.3293004932159502 -6.6653176493319544 79 74 83 2.1946409570166217 112 350 24 429 95 285 46 750 142 532 72 761 79 536 70 361
10607 -1.1008618702078756 2.8785426130518479 -6.901307121899336 106 92 96 0.9942072555892203 142 375 24 450 15 299
10608 0.31630717506409645 2.206100660467194 -1.5234785290187289 165 169 124 1.2421765125206548 14 290 24 455 30 361 46 416 63 789 68 482 64 569 66 441 71 814 65 758 69 832 70 961 73 653 59 418 15 275
10611 -2.6977498092870458 2.4935238322749971 -6.2624571703119738 16 26 49 0.81306517592952443 129 387 24 555 122 362 73 620 79 574
10612 -2.7979663700820736 3.0643059359506895 -7.4500914059910537 105 89 85 0.64121100127932429 95 465 24 574 15 387
10613 -2.733855241917583 2.7365632472701642 -6.3344323400748825 65 72 95 2.0188948468983168 112 476 95 340 70 627 75 648 77 696 74 816 104 753 106 628
10614 -2.8754039767703401 2.9670520467505024 -6.3823630553722772 70 76 99 1.0745908830399105 129 506 24 592 70 802 79 846 73 980 76 680 83 1170 86 1110 82 880 85 1099 94 1150
10615 0.41241273432019399 3.166349226585532 -1.278833505792043 251 238 247 1.9500056365189635 14 572 24 645 30 550 46 588 58 391 62 346 63 577 68 570 64 461 66 518 69 446 70 594 73 1122 72 571 72 718 75 1179 79 865 78 690 78 930 80 609 80 1173 77 661 77 1184 74 442 83 676 83 1276 86 683 86 1198 85 778 85 1150 87 736 87 791 89 1021 88 1040
10616 0.28421613223179082 2.1121192607149069 -1.6120089474493888 96 127 62 0.80314676727463907 14 653 24 686 46 748 70 504 15 793
10617 0.27607057813307873 2.1357669915932438 -1.6699133401941777 166 191 132 1.3579165699981031 14 1198 24 688 30 757 46 632 58 522 62 460 63 474 68 470 64 564 66 502 71 632 65 950 69 928 59 414 15 689
10618 0.22620994794701665 2.4426967609674164 -1.7522312426088902 31 22 7 0.64090866029884752 14 756 24 706 30 541
10619 0.26118167268844633 2.6908822020829324 -1.2363737728550661 123 70 56 1.8603104231164433 14 726 24 707 15 409
10620 0.53489737024160722 2.4512267638452121 -1.7220703418918286 120 112 91 0.92515094341826043 14 791 24 718 30 1017 66 722 71 839 65 606 70 792 69 821 73 891 72 929 75 1028 79 911 78 777 76 642 80 554 77 645 74 695 83 551 84 614 82 633 86 574 87 509 89 1183 85 1122 88 685
10621 -2.8550192941902846 2.4586499106018911 -6.2023586601423082 110 122 147 0.68114130196292777 142 643 24 733
10622 -2.9539526662852293 3.1554730396695567 -6.594294024176488 79 82 105 2.520767306943434 129 714 24 752 122 517 30 1003 73 912 108 686
10624 -2.8970805597689968 2.4910785153916604 -6.3782899261100416 110 122 147 1.9225123871494043 142 799 24 773 70 970 46 899
10625 2.6291245384408333 1.8560756321148351 -5.0567539531871466 39 35 56 2.8675078226331472 112 966 24 777
10627 0.17465218993342027 2.3696751573858639 -1.5336026524460264 107 62 52 2.2199876219466055 95 896 24 818 15 733
10628 0.85020485368501231 3.0643291335831302 -2.0225609338381045 163 118 94 0.16910763762868602 109 400 24 822
10630 3.084836744376152 2.1312494848542873 -3.0783539630153167 69 92 159 1.8120420354504572 24 895 62 623 68 870 59 693 15 749
10633 -0.097445906501517854 1.7156375770270285 -1.8338104446842125 144 117 94 1.5407215238273724 122 789 24 910 30 624
10634 0.58150937789916368 2.8956813519723044 -1.2423946518282569 177 107 92 0.79720069967130369 114 445 15 834 111 639
10636 -0.98122699819906256 2.5617347071171723 -3.2040881356993203 129 119 139 1.1483315243597829 118 527 24 1033 62 1253 68 1451 66 1215 79 1415 63 1271
10637 0.50015981977682 2.8836335014814312 -1.2045545905823214 133 140 147 1.6386972833992552 129 1008 114 683 109 683 119 514 113 335 117 412 122 689 114 349 24 981 24 834 79 762 80 659 80 836 87 1093 103 626 108 921 110 438
10640 -0.80722455172705165 3.6620600932238334 -3.7955913423652001 155 129 116 1.2142840134552897 113 52 30 129
10641 0.5578544877600109 1.7890183358975278 -0.90189196816281714 66 109 50 2.012789211346139 24 14 46 5
10644 -0.26096630862935588 2.01263526541632 -1.4838960246509538 119 103 108 0.53069021456631282 30 43 15 51
10646 4.2874559609025544 4.9620267052592872 -5.9538785804798042 142 132 139 1.794632091703543 24 76 46 55 30 72 58 70 62 65 63 68 66 70 71 82
10647 2.061460703647882 2.4821581292837664 -3.1985624544685485 86 84 85 1.6881311586979439 30 86 46 84 58 92 62 213 68 364 64 342 63 187 59 262
10649 -0.90289664731734542 2.6282550816867425 -3.1886562993920426 44 51 69 1.2924153555734534 24 102 30 109 46 159 58 88 62 148 63 156 68 139 64 124 66 96 71 102 65 91 69 95 70 90 73 85 72 96 75 81 79 88 78 73 76 91 80 94 59 136
10650 0.49426855820231552 3.0484310598338578 -1.1840493832875629 220 219 181 0.86998956562764407 24 116 30 124 58 59 62 66 68 74 64 58 66 69 71 83 65 79 69 77 70 76 73 117 72 108 59 75
10651 0.28138144439291835 1.5312746772928072 -1.5526089135265384 112 69 50 0.77024898215656135 24 199 30 153 46 142
10652 0.26843222698136637 2.4410632042775835 -1.4794093854756467 95 128 62 1.1067383097778805 24 152 30 160 46 75 58 126 62 151 63 131 15 230
10653 -0.83461013242824045 2.6695832365306797 -3.442249733942814 116 119 139 1.2188169276425525 24 234 30 164 58 186 62 219 68 224 59 227
10655 0.19421092673299747 1.5742361017072144 -1.3771736493684181 144 170 102 1.2473259213467567 24 137 30 179 46 181 58 322 15 122
10656 0.34096661577363191 1.6323129751364212 -1.1723207834980474 99 147 76 1.1814078117484483 24 228 30 194 46 296 58 346
10657 0.21586905046513835 1.6084612519317083 -1.2712280764729151 68 96 59 1.3233956445462907 24 197 30 205 15 144 14 87
10658 -1.0323181982869636 2.755930222453423 -3.0040288544557883 63 62 78 1.3219057669109506 30 217 46 306 58 202 64 142 66 126 71 159 65 170 69 120
10660 0.25574098907521098 2.040033464203832 -1.567784891772152 85 105 53 2.0198820541841815 24 430 30 241 46 218 58 235 65 252 73 295 72 297 75 261 59 255 15 248
10662 0.49602064347930003 2.3540393621990017 -1.3703712766913969 25 11 13 1.2612652286472192 24 415 30 259 64 348 68 583
10663 -3.3627236315142954 2.4467115406186157 -8.5181737495463494 22 32 50 0.80683395685303205 14 253 30 282 46 278 15 180
10664 -3.0466034816933076 2.3608634599189817 -6.1310549249665574 109 119 137 1.2544681779998246 24 245 129 231 30 286
10665 3.1204474201832739 2.1483755358583574 -3.0808728853553897 22 40 99 1.8414254968976 24 428 30 289 46 225 58 262 62 472 63 433 68 396 64 555 66 419 71 508 65 321 59 358 15 265
10667 0.47682403228214082 3.1036373412611393 -1.23247403025854 252 252 255 0.53376817276176525 24 345 30 335 46 373 58 368 62 303 63 338 68 297 64 281 66 320 71 329 65 376 69 362 70 318 73 354 72 326 75 320 79 289 78 268 76 251 80 367 77 450 74 318 83 563 84 585 82 766 86 500 85 744 87 805
10669 2.4883976437284145 2.8992993206507558 -2.3288323988838378 105 65 71 0.37452484059297364 24 384 30 343
10671 0.24042535824060124 2.3648534128258372 -1.561519235972411 62 83 31 1.1646857841902067 24 387 30 348 58 276 62 413 15 378
10674 0.17361584422421125 3.1809213200065303 -1.3952218176296516 135 51 86 0.7540119544408348 24 382 30 376 46 371 58 305 62 305 63 323 68 302 64 279 66 323 71 333 65 380 69 364 70 320 73 355 72 327 75 360 79 399 78 381 76 371 80 445 77 452 74 515 83 557 84 629 82 608 86 585 85 627 87 780 89 649 88 1150 90 1127 91 1093 59 321 110 703
10675 0.42105958634093765 1.5144316447863626 -1.289946701968284 100 73 44 1.616319970837752 30 380 46 245 58 303 63 275 62 664 68 678 69 484
10676 0.38531219505623676 2.2427549312541268 -1.8957070282616519 89 46 24 0.55628616006099307 24 263 30 418 46 535
10677 0.42502064142389245 2.1593917823543762 -1.8108987865820494 75 95 26 1.7847822005259866 24 272 30 423 15 223
10680 -2.6277364036650148 2.5122571860678904 -6.3217047021926369 31 41 61 1.3888208249446539 129 330 142 398 30 479 46 475 58 529 69 679 73 469 72 1059 75 747 92 865 102 794 105 767 106 634 15 386
10681 0.18809069312636181 1.7007356489506893 -1.3205728478583507 63 91 60 1.8189119423364319 14 394 30 510 46 620
10684 0.27100563341066158 2.2117752591807585 -1.7292883536953472 91 74 34 0.16171162228497776 24 549 30 575
10685 0.22082692525394246 2.385693690344 -2.0195962357386996 106 55 47 0.90152233756769784 24 532 30 583 46 538 62 557 15 582
10686 0.11945446502056339 3.0048896482476288 -1.4535142776487289 59 58 52 1.4978482944050475 24 512 30 593 66 539 63 537 71 787 73 1093 70 1278 72 1370 75 1568 79 1308
10687 0.2753119716330249 1.6480114054906594 -1.3730992839774803 124 147 75 0.96981456424377777 24 446 30 594 46 450 58 312 62 321 15 261
10689 1.8823935971903356 2.2012279989113801 -4.0846221142298553 93 101 127 0.87901141297694652 95 690 30 628
10690 -3.010196217209451 2.8888701305939612 -8.0939120597912648 132 130 142 0.56243227850497612 142 401 30 637 46 642
10692 0.083984925515278197 2.1200833070790321 -1.5901232121751516 126 117 94 0.26285066771116811 46 786 73 375 72 634
10693 -3.0020504569827495 3.1411119569481825 -8.0315292979032495 130 129 134 0.047176605697735886 14 1008 142 626 30 767
10694 3.0670557513013681 2.2466978579513461 -3.1262050252055662 6 19 68 1.7785133870112178 30 785 46 523 58 587 63 656 68 645 64 646 59 454 15 466 14 460
10695 0.56736632443930868 2.3193724923139141 -1.6909414327000314 27 12 4 1.9808270434930322 24 534 30 796 72 481
10696 0.73148406649293918 2.9075636345252018 -1.272985850526942 184 172 172 1.0987257743604328 24 820 30 832 15 835
10697 0.16154749314608674 2.7995649289999678 -1.3100684049843994 255 244 255 0.61735428339761966 14 721 30 837 64 895
10698 0.4216599251834689 2.9564288366732727 -1.3103386519078193 145 84 79 1.1459230005628587 24 978 30 850 71 1381
10699 0.59064861520377598 3.0211086369838682 -1.050912061568708 213 188 241 0.41085403497429485 24 971 30 855 71 730
10701 -2.82252240902067 3.2037927091437939 -6.7036761220726522 142 140 153 1.1796824707394615 142 994 30 892 129 1158
10702 0.56173528717966625 3.0823334416817869 -1.1795704769770192 107 69 99 1.4793337497079471 24 807 30 906 58 660 62 696 68 573 64 624 65 806 68 893 73 400 72 604 75 784 79 673 78 1271 79 871 59 566
10703 -2.6534321789646551 2.6322106122813316 -6.3479686280662246 165 172 196 1.3895970462893963 122 542 30 916 58 667 105 652 15 532
10704 -3.2463926449867033 2.3410698286358342 -8.4485563465869919 49 58 81 1.2337904845889009 14 518 24 877 30 932 46 822 15 815
10705 0.20180035936517254 2.1862584981857021 -1.6924034107146766 138 136 105 0.85756079153568976 117 568 142 498 30 999
10706 0.57702480063653638 2.3451808171736808 -1.6476686484257723 110 98 86 1.4035889604577665 24 719 120 448 30 1023 46 865 63 1094 58 977 66 790 64 867 71 1454 69 962 70 994 79 1383
10708 -2.7189739276381761 2.5346565855343921 -6.2341730530522268 84 93 118 2.1618171965020219 129 810 142 930 30 1043 122 483 73 939 75 1718 75 1754 101 1401 74 578 105 757 106 768 106 770 103 793 102 793
10709 3.2419615983911507 2.3355042650554974 -3.3716572568238954 87 102 145 1.3846447053144146 14 818 30 1054 15 850
10710 -2.7520149655253761 2.802693735528567 -6.3967828445096933 148 153 177 1.5409352064341688 129 975 30 1113 58 749 73 1247 72 1234 79 1178 70 995 78 1511 80 898 77 1076 78 1045 84 836 82 774 93 812 101 806 15 781
10711 -1.0408629992041383 2.5607684127177306 -3.0160325303732995 33 42 65 1.3671262468487764 142 1195 30 1208
10713 -2.8963862881139906 2.4242767900252118 -6.3804576194179807 128 138 158 1.3785626953346144 129 851 30 1260 46 943 79 1147 72 1584
10714 -2.8469573960307084 2.9187700419816673 -6.9523389342235529 128 133 152 0.57256259016850253 129 971 30 1263 142 1028 46 1220
10715 1.9588721142132282 2.2605538487565706 -4.231323157689979 81 79 99 2.8621846221947642 115 635 109 737 68 829 64 857 114 512
10717 -3.2368706093127506 3.3177639052076628 -7.0176286808039237 118 131 154 0.68900391903618707 112 904 30 1297 95 844
10719 0.47270291425394328 3.2062687080843135 -1.2444161216208551 145 93 101 1.1124073989276129 24 1016 30 1323 66 1309 78 1247 62 1185 74 1033 87 1131 85 996 90 1047
10720 -3.0861120749477187 3.259159615890912 -7.1989341127039728 95 101 120 1.5765205137366747 14 902 129 913 112 802 95 848 122 981 129 916 142 1047 81 556 30 1285 46 1199
10721 0.17473430971768561 3.0964055320274668 -1.3601900429839655 103 44 51 1.3321472962461354 120 257 118 224 112 287 114 170 109 245 30 711 142 960 114 449 62 1065 84 790
10722 2.8677533987382757 1.7726197423248491 -4.2660705379172361 31 39 72 2.815883017270969 24 0 46 3 71 0 65 0 69 0 58 0 15 0
10723 -1.0797018476919298 2.6022348106179347 -3.1164574018900137 0 3 10 1.9592934959384631 119 566 118 786 95 956 115 660 9 535 7 390 30 1122 116 521 142 923
10725 2.9155995309093634 2.762599815622278 -3.5163755279751734 135 134 149 2.1369961540998879 24 97 46 15 63 38 68 37 64 50 59 38
10726 2.7664534838945234 4.1079137533925412 -5.4270931469371648 130 101 79 1.6310475782155707 46 46 58 73 62 69 63 66 68 72 64 92 66 72 71 84 30 77 59 130
10728 -2.4286204381189518 2.160706511290249 -8.215088664358122 24 25 28 1.7514863616080292 30 50 46 10 58 16 62 25
10729 4.796491681053066 3.6460283836983383 -5.6219102885238605 60 36 42 1.1637372492995708 24 24 30 28 46 16 65 29 15 59
10732 4.4273732648324353 3.1840038951839977 -5.2247050219680364 94 96 112 1.8678498071146055 24 49 30 45 46 33 58 33 62 35 63 37 15 81
10733 3.50312532146835 2.5949839057385393 -3.915586235011872 73 81 101 1.8066078606134972 46 34 58 44 62 36 64 51 66 23
10734 -3.1055854827934892 1.9190017053664603 -9.5870067782306112 59 48 43 0.35808888065749833 24 86 30 51 46 36 58 48
10735 -2.1258092161504503 1.6947925634996539 -6.4572253587829467 67 79 104 0.6331675236286145 24 57 46 40 15 73
10736 3.1386896412241878 2.0459538282830909 -3.2372161256618108 54 76 146 1.5928319995839799 24 66 58 55 62 50 63 55 68 62 64 64 66 50 71 76 65 50 59 58 15 54
10737 0.23004957557160194 2.4545081436119056 -1.8167294300536365 34 25 21 1.3660496903365067 24 47 30 80 46 45 58 78 62 59 63 62 68 57 64 81 66 97 71 200 65 268 59 79
10738 -3.1842451604477002 2.9470169420340895 -9.3560088492076101 95 78 65 1.5366478354518185 24 67 30 69 46 52
10739 4.0961048827366486 3.0283831381687532 -4.3018501384219272 65 47 58 1.4638778653471372 24 96 30 104 46 59 15 125
10742 3.1805768373490428 1.2233844125515767 -4.390068388945819 51 47 58 1.9766612830854031 24 112 46 79 62 57 71 189
10743 2.907331691923543 1.3500254374833756 -4.7420176248463326 82 77 77 1.2266755970913066 24 109 30 92 46 81 62 91
10744 -0.14623734805773839 1.7952178476021983 -1.3296305701390285 181 202 143 0.31582158180637809 30 99 46 89 58 103
10745 -3.2557230966767206 2.4761516627069375 -7.6716999411602931 114 121 135 1.2818727411641477 24 68 30 65 46 90
10747 0.42611756118524313 2.4361200029853189 -1.4046282837029807 76 116 66 0.90870106483840307 30 126 46 96 58 120 62 94 63 139
10748 2.4074113071530059 1.7061070922707813 -4.7332340378688276 30 36 57 0.88776594428190381 24 90 30 122 46 97 62 106 71 121 65 80 69 62 15 121
10749 0.41480182044588643 3.0881700403806094 -1.242091600312518 154 80 78 1.1801188465811243 30 133 46 115 58 177 62 120 63 85 68 115 64 114 66 77 71 131 65 128 69 148 70 124 73 154 72 132 75 171 79 120 78 112 76 118 77 172 80 173 74 179 83 133 84 148 59 123
10751 0.13626039023511202 2.0152745789798621 -1.4883960314281564 106 111 119 1.9952147726779188 30 102 58 96 14 123 62 72 63 91 59 100 15 145
10752 0.36447724256144648 1.5851245558333416 -1.1826921271734885 99 70 37 2.3873749754512978 30 178 46 131 58 152 62 207
10753 0.60023868858769558 2.1465960012902028 -1.978053916123655 184 209 169 1.7618594465122679 30 89 46 132 58 95 62 172 63 92 68 159 64 147 66 125 71 154
10754 -2.9466160072123131 2.4600795634321586 -9.2127585526532325 46 37 37 1.4781847083677224 24 200 30 196 46 138 58 148 62 143 63 192 15 194
10755 -3.6349877310514795 1.732703978642363 -8.8205145414556814 151 169 195 0.33934529938365249 24 144 30 155 46 143
10756 -3.0052933334304912 3.2786159403363868 -7.0847372374331217 132 134 151 0.99577485568966784 30 222 122 92 46 147
10757 -3.1705679270497162 3.4568075354473513 -6.5817817083302339 46 42 54 1.3623447538329247 24 153 30 142 46 154 69 180 70 161
10758 0.2924973726988504 2.2062608665258803 -1.6162547465846024 101 72 37 1.4992740702241147 62 269 58 384 63 561 68 450 64 459 66 363 65 740 59 260
10759 0.60094848467322137 2.2011148602572965 -1.6561201966455978 128 160 113 2.2630735080564888 46 161 58 165 62 80 68 170 66 185 71 295 65 474 69 497 70 440 59 411
10760 -3.0503907708746851 2.4598035609003386 -8.4372285180569691 13 18 36 0.95618744500321695 24 139 30 177 46 166 58 146 15 138 14 119
10761 4.6620862414510009 3.7838137464880846 -5.7114544919473813 116 88 76 1.3040873091515455 24 175 30 168 62 92 71 233 46 174 15 174
10762 -3.2317516457960638 2.2622712785219288 -8.4199192565730598 74 87 104 1.3903543203208855 24 201 30 197 46 177 58 193 65 287
10763 -3.5209529757487901 2.2458580816504727 -8.8345918394369836 97 103 120 0.97662831839076958 24 140 30 152 46 180 15 152
10765 1.3210769914637135 1.7606034637325669 -9.250878853018607 29 8 8 0.5270122069441322 24 206 30 200 46 187 72 159 73 155 75 136
10766 0.14042688050790758 1.5442162766946645 -9.0585155849682728 8 5 9 1.4555262803158711 24 208 46 188 58 214 62 187 63 199 68 526
10767 0.22125870959746896 1.3961473071920958 -8.685867472737888 102 79 68 1.1098556829750186 24 147 30 203 46 195 78 178
10769 -0.57268534188256726 4.1369134030356802 -5.6345190137595287 162 138 122 1.6859010322735026 24 171 30 299 46 208 63 127
10770 4.662625467411905 3.1635707174824206 -5.3592264766173905 94 103 126 0.066102257192263675 24 239 46 215
10772 -0.12389746926599622 1.8569762125270732 -1.4735918211083534 122 107 67 2.0949967908510492 30 433 46 223 58 267 62 425 63 450 68 517 73 715 64 276 72 614
10773 3.2058961664087078 2.2463457109066791 -3.1665000590553394 84 100 164 1.5380883674601806 24 252 46 226 30 470 62 467 66 349 15 266
10774 0.30720450092333468 2.0552314377948795 -1.5084477059801669 162 184 141 1.0749325621788304 30 354 46 236 58 252 62 370 63 245 68 252 64 336 66 286 71 250 65 254 69 277 70 242 73 264 72 298 75 262 79 437 78 466 76 431 80 537 77 517 74 453 83 437 84 375 59 357
10777 -0.034112290236601985 1.9544046289822388 -9.5141338726835922 44 37 35 1.4581551179341394 24 279 46 248 76 182 80 170 77 117 74 144
10778 -2.0180215131870627 1.5883122581889277 -6.2239614904217326 82 67 58 1.3468979180112 24 278 30 372 46 256 62 501 63 283 68 295
10779 -2.9975156883630865 1.7127543437944535 -7.5571823442622108 159 172 202 0.72173436412981984 69 199 70 160 73 193 72 203 75 203 79 191 78 198
10780 0.97454860388778697 1.8099688974404473 -9.2568028557193891 44 42 45 0.22458732672092122 24 276 30 397 46 258
10781 -2.2070044440836636 1.8875759197886663 -9.6293012544983334 88 75 60 1.5945071269405706 24 366 46 261 58 210 63 612
10782 0.098876507474898234 1.9672242449877098 -9.3400506825172709 36 25 25 0.9137468882340134 24 280 30 393 46 265 58 321 62 266
10783 -2.6287677673203809 2.2452027900714131 -8.7647486329848387 22 20 30 1.6200593606358817 24 357 30 381 46 274 62 297 63 240 68 250 66 285 71 290 69 379 65 340 70 532 24 494
10784 0.34058864943606798 1.6324750668460217 -1.1569289701979273 96 139 72 1.0329351641248508 30 229 46 277 58 313 15 182
10785 2.129365952253623 2.548055750685327 -2.7650314631844006 111 109 121 1.7620666269466239 30 246 46 293
10786 -2.6380039991890878 2.2466779635328962 -8.8183079293119633 22 20 30 1.4827013136200391 24 377 30 351 46 297 62 296 63 316 68 315 66 300 71 303 65 327 69 310 70 477
10788 -0.97900545081642587 2.6604029203028419 -3.1830892260751584 95 113 136 0.90263821582294079 30 582 46 347 62 561 15 315
10789 0.25480189232015943 2.3898485417633908 -1.9585622663217639 123 68 64 1.2161066101078557 30 394 46 348 58 467 62 420 68 421 64 433 59 404
10791 0.17319393631139643 3.1862458663454896 -1.4030077861061803 171 50 77 0.7224596759301114 30 355 46 354 58 351 62 313 63 306 68 307 64 371 66 292 71 340 59 314
10792 -3.4644770868248878 2.1529997373161782 -9.5193173154935788 70 80 98 0.3429227415578236 24 388 30 520 46 379
10793 -2.039612734449979 1.6574712653766466 -6.3014498747261003 213 230 254 1.2561419302043704 24 369 30 483 46 380 62 378 63 529 71 522 65 553 69 330 70 412 15 453
10794 0.32313096077352582 1.5320017933109773 -1.2494443576494161 120 155 77 1.0208001877663821 30 516 46 385 58 288
10795 -3.9715478428225359 2.1196595184308191 -9.5713814548470015 121 129 147 1.7191514296839661 24 204 30 199 46 387
10796 1.7904609072483075 1.7760849618423762 -9.2707863745460184 50 30 23 1.4936617610014349 24 274 46 388 78 276
10797 -2.7874371714599162 2.22700906420835 -8.8372841403194577 12 14 32 0.98220826501763658 24 285 30 382 46 391 58 311 62 259 63 238
10798 -2.7852159531139931 2.328189013385213 -8.9105918917191751 69 73 85 0.72031097395899024 24 378 30 435 46 394 58 398 62 430 63 435 15 445
10799 0.25295845835136965 2.9096771245959245 -1.3735774301470685 130 113 89 0.95611899993577221 30 316 46 401 68 218 64 217 66 212
10800 0.56015878844286282 2.3315861401709768 -1.8667322982618775 34 15 6 2.6556395913294493 30 571 46 406 58 613 62 957 63 588 62 421 65 849 15 485
10801 0.47313050250925792 1.377220265859173 -8.6474626895058258 49 26 21 1.3152358838669755 24 393 30 494 46 407 62 478 63 488 68 530 75 394 79 352 78 368
10802 0.34727620965561329 1.4481095802341606 -8.5999056561136893 36 15 13 1.3914681426906643 24 395 30 402 46 409 58 428 62 408 63 279 68 385 79 340 78 271 75 283
10803 0.62681430626000323 1.7158053223947185 -9.2343106811335627 60 44 47 0.4862787136711752 24 398 30 368 46 413 58 484
10804 0.26008319452675011 2.3278001363736549 -2.0829021518263211 148 123 105 0.60256135886603879 30 415 46 415 58 465 64 428
10805 0.038095135587719563 2.6542658352976369 -3.4140373821141616 143 112 100 1.2803729206997401 30 410 58 281 63 206
10806 0.52223877126489082 2.1381399556577199 -1.5200429469268353 144 169 116 0.65898956972156186 30 577 46 421 58 489 62 440 63 472
10808 -3.4748883144853351 2.3324814590881213 -8.5206511834607213 0 2 20 0.30885108906828912 24 287 30 426 46 449
10809 -2.7315971013104137 2.092753800079695 -8.0950988382519888 60 73 99 1.4328522599205766 24 461 46 451 58 480 15 447
10810 1.2211834146699101 1.6511899702527761 -9.2171824009094259 64 42 50 1.331735986994087 24 475 30 487 46 492 72 521 75 503 79 551 78 452
10811 -3.1016083523600213 1.5402182359202923 -8.4945151002005481 166 180 203 1.4454681025511174 24 397 30 488 46 494 73 337 72 361
10812 -2.7893468459379083 2.0690970958500974 -8.1781455729248567 113 126 147 1.3608893120274497 24 622 30 607 46 526 58 520 15 448
10813 -3.2717988457911455 2.0510466667462857 -8.3270906689708131 83 93 111 2.1255019026626205 24 363 30 608 46 528
10814 0.41086867278736766 2.011258504564899 -9.3677800565990115 35 24 33 2.4277813865953584 24 636 46 533
10815 -1.118367071428614 2.6050608831623845 -3.1213870952771434 147 118 98 2.0385858543345159 46 537 58 544 62 414 69 506 68 754
10816 -1.0697581800231906 2.7931630489274171 -2.9385583444091186 139 121 108 1.308947895306201 30 539 46 547 65 600 69 512
10818 -0.6510607239467483 3.8781869040774746 -5.5445734504869177 156 131 117 1.7259245517998725 24 321 46 553 58 571
10819 0.35104962339080636 2.9876969206499591 -1.4825868033841332 173 130 98 0.81113984302865128 30 559 46 566 58 549 62 539 63 1066 64 739 66 870 71 971 65 798 69 629 70 1090 73 1425 72 1379
10820 -2.973244031521475 4.183914227328585 -5.3455693762061403 86 62 36 0.65824696903372526 142 582 73 780 75 1352
10821 0.26729823239955824 2.844929527640105 -1.3625006910385538 127 67 55 1.3852505795971575 24 509 30 562 46 574 66 423 63 1075 68 539 68 949 69 632 70 692
10823 4.8167273871383829 5.4611395063476502 -6.7207009370929631 109 85 79 1.6740023224663381 46 595 24 386 58 374 30 312 62 288 63 352 68 375 66 324 71 334 65 580 59 338
10824 -3.2896453070104825 2.4259990919498127 -8.3975295300690966 0 2 17 0.72393379198500574 14 559 46 611 104 376
10825 -2.9032315802079749 2.1239230023240729 -8.9584368247567792 52 64 88 1.5588502510629008 24 624 46 630 63 616 30 606
10828 -1.2135320458554189 2.5318490234542348 -6.6178286090478462 62 50 51 1.3220369051770151 14 539 24 435 46 653 15 422
10829 -0.062278172375969304 1.568951865686907 -8.9565733891383559 101 81 78 1.1533053220442162 24 783 30 813 46 667 63 1010 68 680 78 715 76 894 59 734
10830 -3.1954843121082455 1.8053408336874488 -9.1422767328006636 148 157 185 0.26177495113451593 24 639 30 675 46 689
10832 0.59783317621237475 3.1865895287363264 -1.245837498030782 136 90 90 0.67856180682517675 30 699 46 718 69 781 66 680
10834 0.19071295310213901 2.9620550416759612 -1.4133593331439644 232 174 146 0.80484526807766876 30 840 46 726 62 816 63 451 68 901 64 617 66 519 71 545 65 561 69 628 70 551 73 824 65 767 72 783 75 802 79 763 78 511 76 666 80 672 77 632 74 671 83 1121 84 974 76 764 82 1047 86 597 85 634 87 663 89 768 90 804 91 960 92 951 93 1009 101 853 94 1004 97 860 96 767 103 540 100 648 102 843 105 666 104 298 104 541 106 260 107 736 108 431 110 351 82 365
10835 -1.1179233648768019 2.4156506903398935 -9.1130506909430249 135 112 101 1.6642310210611855 30 1228 46 740 62 1044 68 809 66 942 46 624 88 1206 93 662 98 748 24 560 101 555
10836 -3.2896453070104825 2.4259990919498127 -8.3975295300690966 0 2 17 0.72393379198500574 14 521 46 741 104 419
10837 2.2875277136019352 2.674431808653277 -3.2250692628771782 160 158 170 2.3441520028124399 95 436 46 760
10838 0.62652422974127919 1.4499559086399736 -9.1414747607222573 58 46 48 1.3930097418914709 24 595 30 692 46 820 58 614 62 783 63 1021
10839 0.46836012256215986 2.1886765615557198 -8.9588747797580872 105 78 63 0.41944633258117053 24 497 46 827 78 441
10840 -2.8959755406665826 2.069723519195771 -8.3636660642540086 59 68 76 1.2031666553266582 24 1005 30 946 46 831
10841 -3.2420374318358922 1.9631209673868411 -9.1281196610199089 68 80 99 0.47863135196492451 24 634 30 987 46 842
10843 0.52872481829236073 2.3334486513828678 -1.95316518254362 92 33 28 2.0642222820304816 30 1032 46 924 69 956
10844 -1.0275243168002186 2.2701654453460249 -8.9242099841080584 7 0 0 0.70599545070027159 14 513 46 941 63 1033 68 864 64 853 66 938 59 524
10845 -2.8902347989385757 2.5131136202531765 -6.4509541436410442 124 136 160 2.0073088667685974 24 553 30 950 46 949 70 976 70 1332 79 1027 84 1266
10846 -2.8021550705010623 2.5640827559182324 -6.3650354127553692 71 82 109 1.8617200358264316 129 1176 46 953 65 1215 24 905 70 1008 73 1589
10847 -3.2789667850087776 2.1954011499343826 -8.5760569824061328 65 75 95 1.8240636665268877 24 629 30 939 46 965 69 1226 73 988
10848 -2.1950992315942277 4.3446185834157767 -6.059067299814358 113 85 58 1.9190034154547959 122 802 46 975 68 718
10850 0.45177891355969241 2.9192853883912373 -1.3687974040006459 145 104 96 1.5886935045878676 24 829 30 835 46 986 62 814
10853 0.55540582563936147 3.0270542266055678 -1.0885477769705552 117 189 249 0.53938561459319279 30 1336 46 1007 64 814 63 1280 66 787 71 1029 65 1163
10855 2.8680924759806512 2.3317536538658876 -4.800822086634537 76 68 74 0.13022574333117448 46 1038 15 744
10858 -1.0333982115845599 2.1943768275742817 -9.0414500137630007 112 92 87 1.9127004932945846 24 621 30 1069 46 1060 62 902 85 801 88 971 91 851 98 1280 101 513 94 840 15 792
10859 -3.0750980878142742 1.6231697340316273 -8.0257460722413594 92 114 145 0.94997752221465104 24 923 30 1077 46 1076 70 1196 75 1402
10860 -3.1800665446222349 2.9553133529594358 -8.7593346613450507 129 126 130 1.4219130374916129 14 797 129 874 142 945 46 1089 58 811
10863 0.57459640073426155 3.2699037512233957 -1.2012419486639121 193 124 98 0.94053142380595767 114 650 46 1171 63 1267 69 773
10865 -3.1206269956051313 2.9091823930590412 -8.5552852809374826 129 126 130 1.2358181982834242 14 806 129 974 142 935 46 1207
10866 0.20233351499198049 2.4693533875732281 -2.0143378127493232 130 83 74 1.7180075099880556 24 1045 46 1232 58 966 62 1242 64 911 66 1216
10867 -1.0805434045663507 2.7282462147888413 -3.051598001441894 61 61 69 1.3110247116235934 120 601 142 1171 46 1241 66 1279 71 1472 118 497 15 720
10868 -2.0612819757686434 3.4514361133366691 -7.061127978998134 117 90 74 0.42906935086565301 14 940 46 1245
10869 0.64649748636876503 3.0122573293948371 -1.0601893501787309 200 204 221 1.2871745395522667 30 132 46 116 135 252 132 194 128 158 124 152 123 146 121 111 119 100 120 100 118 96 116 80 113 97 14 99 129 90 117 57 142 81 114 41 24 164 58 176 62 154 63 78 68 124 64 101 66 122 71 181 65 131 69 137 70 125 73 171 72 133 75 170 79 119 78 139 76 119 80 114 77 106 74 112 83 95 84 99 82 106 86 98 85 149 87 96 89 117 88 98 90 128 91 112 92 143 93 134 98 140 101 111 94 132 97 93 96 85 103 73 100 71 102 70 105 78 104 68 99 71 106 62 107 55 59 112 111 28
10870 0.30653172471717699 2.9979660340165668 -1.4800627925394307 59 24 21 1.7005585329555153 24 336 122 157 129 214 142 210 115 112 71 546 65 569 69 627 70 603 73 545 72 415 75 355
10871 0.51697092448846449 3.1506499281535318 -1.2183853873099555 114 84 91 1.0065976828035443 129 546 122 522 142 428 14 427 46 589 24 347 30 549 58 555 62 345 63 347 68 269 64 469 66 263 71 332 65 379 69 422 70 321 73 284 72 348 75 345 79 397 76 323 80 376 77 377 74 320 83 261 84 422 109 470 82 484 86 392 85 466 87 455 89 430 88 478 90 552 91 515 92 1349
10872 0.053261011727370994 3.1741045981707621 -1.4520262588953112 177 133 135 0.85847476183923899 135 756 132 963 128 619 125 902 123 886 121 808 119 739 120 612 118 813 116 409 46 1134 122 919 95 869 61 573 9 636 7 640
10873 4.6845630859503569 3.4687481882724911 -5.5352340171883982 76 71 79 1.9904846076753118 120 128 24 235 46 304 118 257 116 237 30 412 58 200 63 221 64 313 71 236
10875 5.1246150645665285 5.0464299385653995 -5.9302649105716236 137 134 137 1.4696596938067439 30 40 46 29 58 38 62 33 63 41 68 41 64 45 66 36 71 54 65 42 59 45 15 89
10876 0.1854241408901274 2.7822938717122452 -1.6739294427561024 100 61 59 1.1202036184512205 62 117 63 111 68 105 64 138 59 165
10877 2.5617503501313328 1.4402210065128367 -4.5565365779255265 93 81 77 1.9256654773073749 30 62 46 66 58 110 62 90 63 207 68 200 65 160 69 155
10879 2.2563377783211975 2.7055277315861646 -2.3352594643277982 83 57 61 1.9813701865428268 30 345 46 546
10880 0.57029689238150549 2.9933880414854093 -1.17115614766313 55 195 253 1.7343766778858836 14 2 62 5 63 5 66 2 71 3 65 7 15 13
10882 2.9729515372416784 2.0945423587871015 -3.3971950856072421 26 33 65 1.3196725362994364 24 22 46 12 30 26 62 23 63 27 68 28 64 22 66 21 71 29 65 25 59 24
10884 4.7600331338535664 5.2156722111144518 -7.598632273003493 0 0 0 2.5738886519988551 46 21 142 19
10886 0.35962175532737845 3.2557186002817873 -1.2769064084858361 157 83 75 1.3180643663259699 46 56 58 36 62 46 63 44 64 44 66 37 71 52 72 61 82 24 83 27 84 26 86 26 85 26 87 53 89 55
10887 4.6055924874615917 3.5063117480956705 -5.9682731022441349 84 67 73 1.392747285761772 24 82 58 67 62 58 71 64 15 50 14 45 142 58
10888 0.58936937937083034 1.701419516098615 -0.84965712931965154 59 87 50 1.451313700985353 46 51 58 104 62 84
10889 0.55876695690806177 1.5000442550942648 -8.7932502135174193 34 12 20 1.4926878969646231 24 110 30 94 58 108 78 45
10890 -0.43748768628487905 3.8616966125992875 -5.3430225311491943 161 136 114 2.1466851025960283 46 77 58 136 62 116 63 88
10891 0.50340327713800992 1.5541431032813191 -1.4527098980333524 135 156 104 1.360986309240467 46 183 58 141 62 186 68 155 66 134
10892 2.7663543422979777 2.6289281272876335 -4.0344289685180001 137 133 144 1.6881284308909359 24 183 30 174 46 194 58 153 66 182 14 137
10893 0.36049953977409205 1.5852863167830442 -1.1433510784269907 88 72 69 1.7237112797021272 46 129 58 158 62 179
10894 2.6619333695983838 2.5717444124114701 -3.8129670255289385 133 134 146 1.2184232598343288 24 156 30 141 58 161
10895 0.58543886331557637 3.1621213966024175 -1.2507829089243574 154 76 77 1.6443916613170713 46 164 63 211 62 200 68 207 64 228 66 201 71 185 73 103 72 107 75 152 79 117 78 114 76 126 80 113 77 170 74 114 83 148 84 149 82 194 86 141 85 159 87 135 89 106 88 95
10896 0.58903681630469207 3.117110539170862 -1.191068677167592 154 76 77 1.960508226020329 46 198 58 179 62 121 63 122 68 114 64 113 66 75 71 130 65 184 69 149 70 123 73 116 72 121 75 142 79 126 14 240 59 153
10897 0.65183943964614344 3.2520032111513788 -1.3198808789236642 230 238 245 0.8932170997287241 46 112 58 181 62 123 63 107 68 120 64 111 66 78 71 117 65 126 69 151 70 107 73 114 72 122 72 125 75 97 75 108 79 102 78 92 78 109 76 81 76 94 80 89 77 97 74 83 83 87 109 47 115 66 84 81 82 68 86 87 85 99 87 62 89 84 88 80 90 93 91 97 92 105 93 97 98 88 101 92 96 74 103 64 100 59 102 61 105 56 104 33 99 53 106 63 107 48 59 122 108 61
10898 0.41613947258453682 1.7107808922822791 -1.2208790365027415 140 185 94 1.1972301679773862 46 169 58 199 62 255 63 286 68 294 64 264 66 262 71 264 65 220 59 191
10899 -0.96760203602419581 2.7110412100369863 -3.0812171028509607 115 126 148 1.4428687161382607 30 190 58 201 62 319 63 300 64 201 66 167 71 192 65 208 69 230 70 203 73 317 72 436
10900 0.20656499728164154 1.5968089429426207 -1.1084898908253926 68 98 66 1.5105221892567193 46 179 58 206 62 286
10901 -2.3302938121192094 1.7953295901820951 -7.5858649217051912 51 59 75 1.9827813767887621 30 672 46 262 58 209
10902 0.26577601513656685 2.6904119227904504 -1.8909848899987993 117 57 43 1.7311799061218827 46 309 58 218 62 226 63 165 68 162 66 157 65 234
10903 4.7997182587030274 3.4675590561249554 -6.0385160593052509 99 91 102 0.87883401055656662 30 235 46 247 58 277 62 175 63 258 68 324 64 312 66 200 71 256
10904 -1.175784459529402 2.3155384786179365 -8.9989603280466515 117 98 91 1.5150436952462358 24 286 58 309 30 518 62 426 68 633 64 454 66 506 88 343 91 350 90 401 59 355 15 256
10905 -1.0561332718339256 2.2576546879779413 -8.7838214338984262 46 32 32 1.1323891589360933 24 284 30 279 58 310 62 181 63 181 68 175 64 242 77 198 74 268 80 248 83 132 84 132 82 158 59 193 15 195 14 166
10906 -1.0682903094695242 2.2664207632165958 -9.0103923234016943 46 32 32 1.212999265932394 24 310 30 305 58 343 62 164 63 173 68 186 84 172 82 192 86 134 89 124 88 133 90 139 91 142 92 150 59 198
10907 -1.0573125362506626 2.2651696992316164 -8.8342074239973183 46 32 32 0.42094354551743685 24 309 58 344 62 163 68 188 64 203 59 256 15 181
10909 0.60296575528822782 2.8941272592950114 -1.3485961928358483 166 97 68 0.99240389964360998 46 206 58 361 62 348 63 545 68 537
10910 0.55199578842827313 3.2018847325154751 -1.2226141961977448 244 247 253 1.0131467094022242 46 280 58 363 62 308 63 324 68 373 64 364 66 247 71 335 65 383 69 294 70 324 73 357 72 330 75 304 79 291 78 309 74 166
10911 0.61136443339593216 3.061500571436619 -1.085515098371026 140 99 113 1.4646076388951943 46 372 58 367 68 348 65 375 69 383 70 319
10914 0.25907186158676621 1.7856505967069967 -1.3751950647135402 103 117 64 0.71069280243461774 46 572 58 401 62 162
10916 0.49845879262470177 2.1442286369235855 -1.5630931034664068 139 171 110 0.075132967744116208 46 422 58 424
10917 -2.1099706382620131 1.5718544554822091 -6.1731058137456039 64 82 110 1.3777908236405665 30 486 58 430 24 607 71 525 69 751 73 857
10918 -0.11521979048163133 1.6786271225345546 -9.2106570425245913 99 83 70 1.6588065021234859 24 271 30 399 58 432 62 377 76 361 78 596 80 166 80 1075 46 1074 77 149 74 156
10920 -2.6763884892314822 2.1835764001724249 -8.7724583087389103 69 68 85 1.0091985972319377 24 376 30 384 46 390 58 437 62 428 63 440 70 456 65 429 69 521 71 289 73 447
10921 -0.34720789486508491 2.1289362630713171 -1.6670573994230227 116 106 84 1.7796495511199268 30 236 58 443 62 436 66 228
10923 0.53956032856124092 3.1175656887795893 -1.2096552295428953 244 243 255 0.45761056023569563 46 455 58 455 62 365 63 368 68 466 64 465 66 481 71 480 69 443
10924 0.28979217156545262 2.2029282057145241 -1.5793430079618103 71 67 18 1.0879437671806118 46 418 58 464 63 484 68 462 64 408 66 429 71 780 65 761 69 844 70 659 73 655 72 980 75 643 79 501
10925 5.0011180136459874 3.7867029628389859 -5.629026438181473 78 59 68 1.2345352734164761 30 256 46 568 58 470 62 327 63 266 68 413 71 411 65 292 59 480 15 228
10926 0.521697901506055 3.223952616643643 -1.2165575239639785 186 108 97 0.79680767409791275 129 337 58 498 63 305 71 339 72 336
10928 -2.149781308909533 1.7081620379350775 -6.261636939183794 155 174 195 0.88842507627411549 30 461 46 489 58 511 24 370 62 500 63 514 15 332
10929 0.3115117882875455 1.5498697245848119 -1.3710210312341944 152 186 113 0.50974176661915527 30 933 58 513 62 609
10930 -3.2134173171309039 2.0246785170223971 -9.3934914025709322 94 94 102 0.36373513986382844 24 466 30 614 58 517 46 685
10931 -0.10504600382596831 1.7484820647433668 -1.2212253433629203 69 100 53 2.4801945613568708 30 884 58 524 46 1170 62 903 15 487
10932 -1.277954057912974 2.4527693331189808 -6.5570410327046931 98 80 77 1.2187754558371153 24 572 58 525 30 955
10933 0.27265786157739919 1.9049089420848246 -1.4290373716508979 137 158 94 0.85501952585399021 46 601 58 527 62 475 63 485 68 603 64 471 78 831 59 351
10934 0.071821142085126924 3.0956574832848438 -1.6203693814535975 149 129 97 1.7645887212113831 30 717 58 540 62 805 68 896 63 1060 64 1037 71 1367
10935 -1.095513730894909 4.3691075529636967 -3.9682928586384003 123 104 87 0.54638797454554477 30 708 46 720 58 560
10937 0.56596565996454085 2.3230092720535938 -1.6578487635062371 43 22 7 1.2413512745086623 30 794 58 578 62 729 63 592 64 667 65 614 73 606
10939 0.18092976607535491 1.8238824234430417 -9.4968179551725225 34 22 34 0.51437761616113198 24 277 58 618 62 516
10940 -0.024152956677013167 1.5136395192608971 -8.9552020125126504 62 50 50 1.6478024771876674 24 793 58 629 30 804 68 1067 63 1187 78 723 76 1020
10941 -2.852735311991458 2.5313720949453216 -7.789543269545474 141 149 176 1.6396049172828555 30 644 58 643 24 487 15 522
10942 -3.0277384512097818 3.2348917540754303 -6.5297977468391748 124 127 145 1.9822822874786052 14 463 46 769 142 534 58 678 24 698 70 779 73 892 81 420 72 991 79 817 79 1380 78 809 106 673 108 448
10943 0.20988541127819843 2.4402167972391831 -1.4150592856476025 80 95 53 0.76879109329132733 46 1136 58 685 63 947 64 736
10944 0.55783280202353758 2.9883573545449296 -1.1028907165991975 169 172 183 1.0553214310497727 30 903 58 698 66 673 79 726
10946 -2.0561772982149402 1.6433982555978313 -6.1500686529835731 56 69 95 1.0317247589710381 30 1065 58 722 63 1037 46 693 68 1056 66 900 71 1052 69 748 73 729 72 702 75 914
10947 2.6858152006279647 1.9000935312394731 -4.5629863516587603 38 38 56 2.2353367530376271 122 359 58 735 63 1029 68 1144
10948 0.47221381752542646 2.9111402870167762 -1.1819126990237219 183 117 101 1.6599004819211005 46 1123 58 745 62 817 75 1819 113 593 86 1090 92 1140 102 865 106 839
10949 0.59729772554506966 2.2663487946543301 -1.3953913209162803 57 56 18 0.12317939391109144 46 1235 58 757
10950 0.67109952870676115 3.2645700785389864 -1.3522243003871353 206 207 214 0.84361769198198855 46 1000 58 781 64 779 69 992 72 1247
10951 0.82286512501212961 1.5415438660512903 -9.3487733755187872 70 64 69 1.7085054002044893 24 478 46 656 58 788 30 807 62 834 76 568 80 569 77 882 74 615
10952 0.14865560658776242 2.8724245508831152 -1.3259169062278631 199 159 195 0.66659157560467641 69 1152 65 1248 70 1257 73 1108 75 1556 79 1289 77 1389 86 1053 104 1032
10953 0.2189324436229893 2.9536646385552667 -1.44129014126204 66 33 20 1.2643323275708422 30 1242 46 907 58 800 62 815 63 1221 68 945 66 623 71 794 65 769 69 802 70 810 73 546 72 596 75 353 79 407 78 384 76 377 80 368 77 355 74 381 83 318 84 321 82 364 86 299 85 331 87 348 89 297 88 310 90 286 91 288 92 303 93 325 98 317 101 299 94 301 97 248 96 220 103 204 100 185 102 185 105 187 104 173 99 174 106 149 107 149 108 175 111 277 110 143
10954 3.0940616979964877 2.1100871809673354 -3.024991035270661 58 79 145 1.3876364875902254 30 631 58 809 71 887
10955 3.0598876005216762 2.2252992035046315 -3.0075972357411702 49 64 122 0.93991856233304105 30 1255 58 818 62 917 68 861 64 856 66 916 71 923
10956 -2.8296775204671891 2.9782207604771522 -6.4634478059725105 47 57 75 1.6381724296512086 58 828 73 959 72 970 79 816 14 534 82 841
10957 2.0400274824459967 2.4493450162673827 -3.3027638092164184 79 76 80 0.48291261559935578 30 424 64 509 59 582
10958 3.3538785387337553 2.2587391949297149 -3.2518426247234027 67 83 110 1.8259077772058359 24 999 58 834 66 1010 71 830
10959 -2.5240529562315555 2.1080727551354226 -7.0160250249863818 59 73 96 0.67728421259637239 24 738 58 847 30 601
10960 2.4675781797595642 1.6087532413530319 -4.8873125761407268 100 90 100 1.0044283387003734 14 862 58 878 15 658
10961 0.68850210260661715 2.8773833831742155 -1.1974271532663947 235 219 217 0.80851972422317897 30 720 58 897 62 758 66 769 63 1254 68 1347 71 933 65 854
10962 0.40735702839397187 3.1472162505266845 -1.2815587409963376 163 98 105 1.0355347352311519 46 1144 58 898 62 1276 72 1434 70 878
10963 0.40303545298368287 3.0248344378218013 -1.153563077832499 134 89 86 0.89351730039815802 46 977 58 900 71 731 65 803
10964 0.14873102474116398 3.0509306882913965 -1.4050513800770896 141 80 87 0.95208833387170033 30 1247 58 902 66 1204
10965 0.19628274572850998 2.9995289548916957 -1.3948102657991979 121 75 77 0.77488214066547534 114 731 58 905 66 1158 70 1232
10966 -0.75073883576007239 4.0464864512229219 -4.7124389107463349 99 86 83 0.5764953876295269 117 563 58 909
10967 2.7366032740940645 1.4965634236927163 -4.8573649867455444 42 43 59 2.1371934843415472 30 1076 58 918 68 1284
10968 0.6838140508595183 3.2819582374628173 -1.2993049872990239 141 124 116 2.2478015155904685 114 361 115 782 71 1546 65 1173 69 1177 72 1644 105 612
10971 0.61663988543711312 2.8715183509561517 -1.4221015455006094 68 46 37 2.0860587920041747 58 358 115 113 122 158 114 94 62 241 63 333 68 346 15 129
10973 0.28747828421125199 2.4210948690213541 -1.9887071493572361 20 2 0 0.92661250241235515 46 461 58 396 62 358 63 315 68 313 64 399
10974 0.75951759861521584 2.9900872020505096 -1.7536514098803275 160 111 89 1.0905889297784128 46 559 58 574 66 766 68 1349 63 926
10975 4.5956176654816288 5.0013932168787942 -5.8320774941495745 105 79 65 1.0668235328804383 46 22 58 25 62 31 63 35 68 31 64 30 66 29 71 40 65 33 59 31
10976 4.5956176654816288 5.0013932168787942 -5.8320774941495745 105 79 65 1.0668235328804383 46 25 58 30 62 28 63 32 68 23 64 29 66 26 71 38 65 32 59 33
10977 3.2071590030677628 2.1800192564838654 -2.9982816257156562 94 111 177 1.2495303238384554 46 136 63 95 68 142 64 82 71 141 65 124 59 101
10978 2.270433329139335 2.6178787342491154 -3.1079981304164721 119 118 130 0.89560865608485829 46 243 58 239 63 237 64 345
10984 -0.59648765271328497 4.060433086198497 -5.5648418905465178 151 134 124 1.806174667047594 24 1056 58 972
10985 -2.2661748516502938 3.6721147648869903 0.41481076222926022 30 16 19 1.7947014875004907 23 170 21 142 22 109 19 108 20 130 18 147 41 71 45 113
