# 3D point list with one line of data per point:
# POINT3D_ID, X, Y, Z, R, G, B, ERROR, TRACK[]
12010 0.39830097556114197 -0.5437910556793213 2.0973618030548096 255 255 255 1.0
12011 0.8087111711502075 1.073386549949646 -0.08456668257713318 255 255 255 1.0
12012 0.5509172081947327 -0.2472645789384842 2.6572723388671875 255 255 255 1.0
12013 0.755771815776825 1.8166903257369995 -2.2240347862243652 255 255 255 1.0
12014 -0.5293928980827332 1.2905195951461792 -1.24953031539917 255 255 255 1.0
12015 0.3090919256210327 1.4200963973999023 -2.1183297634124756 255 255 255 1.0
12016 1.1214314699172974 0.2605159282684326 0.3541995882987976 255 255 255 1.0
12017 -0.803307056427002 -0.926045298576355 0.6243742108345032 255 255 255 1.0
12018 0.9254516363143921 -1.4320311546325684 -1.8659690618515015 255 255 255 1.0
12019 -0.798979640007019 0.30326029658317566 -0.6363570094108582 255 255 255 1.0
12020 0.14166289567947388 -1.754079818725586 -2.118844747543335 255 255 255 1.0
12021 -0.3667581379413605 -0.02406352013349533 2.116546392440796 255 255 255 1.0
12022 0.32871291041374207 0.5686528086662292 0.9589692950248718 255 255 255 1.0
12023 0.9912504553794861 1.16410231590271 -1.9221693277359009 255 255 255 1.0
12024 0.9814284443855286 1.57223379611969 -2.05281138420105 255 255 255 1.0
12025 -1.169651746749878 1.409178614616394 -1.9371308088302612 255 255 255 1.0
12026 -0.886780858039856 1.6400858163833618 -0.9553514719009399 255 255 255 1.0
12027 0.9193226099014282 1.244462251663208 2.0437822341918945 255 255 255 1.0
12028 -0.8033072352409363 0.38689565658569336 -0.7607932090759277 255 255 255 1.0
12029 -1.2254585027694702 1.3930354118347168 -1.607258915901184 255 255 255 1.0
12030 1.2276298999786377 1.3627619743347168 -1.8460630178451538 255 255 255 1.0
12031 0.5383205413818359 1.2761212587356567 -1.8959715366363525 255 255 255 1.0
12032 0.215766042470932 -0.9411694407463074 -1.1282665729522705 255 255 255 1.0
12033 -0.6974486112594604 0.6766321659088135 2.2502129077911377 255 255 255 1.0
12034 0.7559590935707092 -1.0468510389328003 -0.6577290892601013 255 255 255 1.0
12035 -0.31537461280822754 -1.2052584886550903 -2.120250940322876 255 255 255 1.0
12036 1.2694770097732544 0.44219958782196045 -0.6361833810806274 255 255 255 1.0
12037 -0.7490917444229126 -0.4796787202358246 -0.254980206489563 255 255 255 1.0
12038 0.8358286023139954 1.0443260669708252 0.7106309533119202 255 255 255 1.0
12039 -0.7796168327331543 0.9267057180404663 -0.3852168321609497 255 255 255 1.0
12040 1.2694770097732544 -0.5264391303062439 0.17040425539016724 255 255 255 1.0
12041 -0.2767268121242523 -1.219179391860962 0.4506148397922516 255 255 255 1.0
12042 0.5813698768615723 -0.9231283068656921 -0.6719933152198792 255 255 255 1.0
12043 0.8858474493026733 -0.767549455165863 0.9589692950248718 255 255 255 1.0
12044 0.39830100536346436 -1.1853382587432861 2.222599983215332 255 255 255 1.0
12045 0.7925565242767334 -0.1183011531829834 2.2634341716766357 255 255 255 1.0
12046 -0.6762057542800903 1.4572558403015137 -1.339064121246338 255 255 255 1.0
12047 -0.9521753787994385 0.8937569856643677 0.7663143873214722 255 255 255 1.0
12048 1.1214314699172974 -0.3417743444442749 -0.3531363904476166 255 255 255 1.0
12049 1.2241061925888062 0.0023097284138202667 0.5757095813751221 255 255 255 1.0
12050 1.1214314699172974 0.3687291145324707 0.8446283936500549 255 255 255 1.0
12051 0.9991298317909241 1.0443265438079834 -0.30413827300071716 255 255 255 1.0
12052 1.0826470851898193 0.49167123436927795 0.9828958511352539 255 255 255 1.0
12053 0.34385350346565247 -0.7228378653526306 0.9589692950248718 255 255 255 1.0
12054 -0.8088027238845825 -0.4607771337032318 0.4558413624763489 255 255 255 1.0
12055 -0.051655493676662445 0.007592950016260147 1.9842650890350342 255 255 255 1.0
12056 1.0968502759933472 -0.9223693609237671 -0.6991888284683228 255 255 255 1.0
12057 -0.5227274298667908 0.5298415422439575 0.822885274887085 255 255 255 1.0
12058 0.9502838253974915 1.467484712600708 -1.3840079307556152 255 255 255 1.0
12059 0.5826493501663208 -1.3870222568511963 -2.2648775577545166 255 255 255 1.0
12060 -0.826349675655365 0.00013328343629837036 -0.6256181597709656 255 255 255 1.0
12061 1.1214314699172974 -0.4769645929336548 -0.2279675304889679 255 255 255 1.0
12062 0.3699888288974762 1.0262246131896973 0.9589692950248718 255 255 255 1.0
12063 -0.5452929139137268 1.7108478546142578 -0.9815405607223511 255 255 255 1.0
12064 0.602899968624115 -1.1762397289276123 2.024017333984375 255 255 255 1.0
12065 1.2694770097732544 -0.29571640491485596 -0.4630435109138489 255 255 255 1.0
12066 -0.176832914352417 -1.555946946144104 -2.267277956008911 255 255 255 1.0
12067 0.17920488119125366 0.8762075304985046 -1.525116205215454 255 255 255 1.0
12068 -0.9903372526168823 0.7264425158500671 -0.3402756452560425 255 255 255 1.0
12069 0.023391306400299072 1.0443265438079834 0.5432943105697632 255 255 255 1.0
12070 0.3941704034805298 1.0443265438079834 -0.26473724842071533 255 255 255 1.0
12071 -0.8148986101150513 -1.3229557275772095 -1.8768430948257446 255 255 255 1.0
12072 -0.22290471196174622 0.14749081432819366 1.6166661977767944 255 255 255 1.0
12073 -0.12582819163799286 -1.1928279399871826 -0.6778312921524048 255 255 255 1.0
12074 -0.48108598589897156 -1.0059775114059448 -0.3626212775707245 255 255 255 1.0
12075 0.7391990423202515 -1.0059775114059448 -0.38752150535583496 255 255 255 1.0
12076 1.4937677383422852 -0.8711338043212891 -0.965735673904419 255 255 255 1.0
12077 0.40321362018585205 -1.4180880784988403 0.03431260585784912 255 255 255 1.0
12078 -0.6831877827644348 -1.8653484582901 -1.4049628973007202 255 255 255 1.0
12079 1.0421264171600342 -1.2830532789230347 -1.9793922901153564 255 255 255 1.0
12080 -0.056477852165699005 1.507759690284729 -0.768531084060669 255 255 255 1.0
12081 1.2694770097732544 -0.1499638557434082 -0.7957459092140198 255 255 255 1.0
12082 -0.7411706447601318 0.4991261959075928 0.4553733468055725 255 255 255 1.0
12083 0.09911463409662247 -0.2257184088230133 0.7398646473884583 255 255 255 1.0
12084 0.8696052432060242 1.0443265438079834 -0.868155837059021 255 255 255 1.0
12085 -0.0791405737400055 -0.18255527317523956 0.7137428522109985 255 255 255 1.0
12086 0.8423540592193604 -1.4928358793258667 -1.9112577438354492 255 255 255 1.0
12087 0.19420397281646729 1.5912538766860962 -2.2661051750183105 255 255 255 1.0
12088 1.1654456853866577 1.5373718738555908 -2.058805227279663 255 255 255 1.0
12089 0.6823256611824036 1.361304759979248 -1.8292250633239746 255 255 255 1.0
12090 0.866748034954071 1.08397376537323 2.678497314453125 255 255 255 1.0
12091 -0.9188411831855774 -1.1459490060806274 -1.745474934577942 255 255 255 1.0
12092 -1.1796042919158936 -0.7269594669342041 0.2871769070625305 255 255 255 1.0
12093 -0.783706784248352 -0.3964601755142212 -0.9096347689628601 255 255 255 1.0
12094 -0.8173989057540894 1.2009471654891968 -0.919870913028717 255 255 255 1.0
12095 -0.011474290862679482 1.6333811283111572 -0.3683440685272217 255 255 255 1.0
12096 0.9338544011116028 -1.0354249477386475 0.05615934729576111 255 255 255 1.0
12097 0.5950034260749817 -0.9411693811416626 -0.9589560031890869 255 255 255 1.0
12098 0.3092028796672821 -1.0615041255950928 2.153271436691284 255 255 255 1.0
12099 -0.3358910083770752 -1.2223867177963257 0.709551990032196 255 255 255 1.0
12100 0.6279594302177429 -1.6829392910003662 -1.0436173677444458 255 255 255 1.0
12101 0.13274209201335907 1.9086462259292603 -1.253924012184143 255 255 255 1.0
12102 0.32964932918548584 -0.8497288227081299 -1.525116205215454 255 255 255 1.0
12103 -0.9766134023666382 0.7102761268615723 -0.460986852645874 255 255 255 1.0
12104 0.7851834297180176 1.221374750137329 2.284867286682129 255 255 255 1.0
12105 0.31698358058929443 -0.08460669964551926 2.3755061626434326 255 255 255 1.0
12106 -0.6703584790229797 -1.7757084369659424 -0.8857564926147461 255 255 255 1.0
12107 0.45519328117370605 -0.4455910325050354 -1.0612720251083374 255 255 255 1.0
12108 -1.1494752168655396 -1.6240170001983643 -1.381417155265808 255 255 255 1.0
12109 0.5475359559059143 0.9607177376747131 -0.7632700204849243 255 255 255 1.0
12110 -0.20046022534370422 1.720375418663025 -0.44739556312561035 255 255 255 1.0
12111 1.331886887550354 -1.3837506771087646 -0.29545605182647705 255 255 255 1.0
12112 0.7548007965087891 1.0852000713348389 -0.07101902365684509 255 255 255 1.0
12113 0.18444520235061646 -0.9411694407463074 -0.9843668937683105 255 255 255 1.0
12114 1.6262609958648682 -1.206889033317566 -0.38487565517425537 255 255 255 1.0
12115 -0.28107690811157227 1.7815306186676025 -2.120145559310913 255 255 255 1.0
12116 1.1823065280914307 1.128638505935669 -0.867850661277771 255 255 255 1.0
12117 0.5182009935379028 -1.3126975297927856 -2.2650811672210693 255 255 255 1.0
12118 -0.7508136034011841 1.367490530014038 -1.3781465291976929 255 255 255 1.0
12119 -0.7812423706054688 0.8819488883018494 0.9990589022636414 255 255 255 1.0
12120 0.8355316519737244 -0.3257353603839874 1.9459704160690308 255 255 255 1.0
12121 1.1189405918121338 1.1549873352050781 -1.69926118850708 255 255 255 1.0
12122 -0.0067327916622161865 -0.7025085687637329 2.4367733001708984 255 255 255 1.0
12123 -1.2735744714736938 -0.9306060671806335 0.22188560664653778 255 255 255 1.0
12124 -0.9079955220222473 -1.571800947189331 -1.6514811515808105 255 255 255 1.0
12125 -0.6912174820899963 -0.7565574049949646 2.3596925735473633 255 255 255 1.0
12126 -0.6601987481117249 1.8994117975234985 -1.3792600631713867 255 255 255 1.0
12127 0.6054269075393677 -1.2236453294754028 -2.0269358158111572 255 255 255 1.0
12128 -0.18125271797180176 -0.008036389015614986 1.6456776857376099 255 255 255 1.0
12129 -0.8604918718338013 1.720375418663025 -1.9511679410934448 255 255 255 1.0
12130 -0.26272860169410706 -1.845760464668274 -0.7046495676040649 255 255 255 1.0
12131 0.24857431650161743 0.939320981502533 0.9589692950248718 255 255 255 1.0
12132 1.1214314699172974 -0.1471313238143921 -0.08698529005050659 255 255 255 1.0
12133 -0.26030397415161133 -0.3006677031517029 2.1135897636413574 255 255 255 1.0
12134 -0.9395415186882019 0.6510518789291382 1.7578619718551636 255 255 255 1.0
12135 -0.782687783241272 1.720375418663025 -1.6577701568603516 255 255 255 1.0
12136 -0.45109257102012634 1.367490530014038 -0.8258517384529114 255 255 255 1.0
12137 -0.1558254361152649 -1.360200047492981 -1.9553673267364502 255 255 255 1.0
12138 0.11204761266708374 1.0443265438079834 0.37903666496276855 255 255 255 1.0
12139 -0.4945199489593506 1.0572803020477295 -0.965769350528717 255 255 255 1.0
12140 -0.5177066922187805 -1.0193697214126587 0.09592686593532562 255 255 255 1.0
12141 -0.6850315928459167 -1.0902903079986572 -0.9313837289810181 255 255 255 1.0
12142 -0.25821229815483093 -1.2623175382614136 -0.3942618668079376 255 255 255 1.0
12143 0.6875718832015991 1.3771919012069702 -2.0679733753204346 255 255 255 1.0
12144 -0.11196344345808029 -0.3038804829120636 0.8523347973823547 255 255 255 1.0
12145 -0.8033071756362915 0.7130584716796875 0.9481542706489563 255 255 255 1.0
12146 0.8905038237571716 -0.8427093625068665 -1.0612720251083374 255 255 255 1.0
12147 -0.08772122859954834 -1.7362371683120728 -2.2266793251037598 255 255 255 1.0
12148 0.7671138048171997 -0.2998218536376953 2.1815075874328613 255 255 255 1.0
12149 -1.3040963411331177 0.9148033261299133 -0.07720768451690674 255 255 255 1.0
12150 0.13993339240550995 -1.4934587478637695 0.0320739708840847 255 255 255 1.0
12151 0.2517523765563965 1.6390540599822998 -1.971174955368042 255 255 255 1.0
12152 1.1296510696411133 -1.8580727577209473 -2.0403878688812256 255 255 255 1.0
12153 0.5964013338088989 -0.802619993686676 -1.2522759437561035 255 255 255 1.0
12154 -0.3231993019580841 0.08866577595472336 2.0076229572296143 255 255 255 1.0
12155 -0.08204299211502075 1.5704827308654785 -1.9582289457321167 255 255 255 1.0
12156 0.4626697897911072 1.37337064743042 1.9401644468307495 255 255 255 1.0
12157 1.1959874629974365 -0.3780788481235504 0.7987783551216125 255 255 255 1.0
12158 1.1214314699172974 0.8030579686164856 0.6623060703277588 255 255 255 1.0
12159 1.069224238395691 -1.0059775114059448 -0.4585043787956238 255 255 255 1.0
12160 0.3201471269130707 1.6218703985214233 -0.7185525894165039 255 255 255 1.0
12161 -0.06255266815423965 -0.22508008778095245 0.8962970972061157 255 255 255 1.0
12162 -0.07223514467477798 -0.7891342639923096 -1.3673076629638672 255 255 255 1.0
12163 0.03271454572677612 -0.025795772671699524 1.104472041130066 255 255 255 1.0
12164 -1.0415983200073242 1.8972246646881104 -1.7015902996063232 255 255 255 1.0
12165 -0.058892592787742615 1.1690573692321777 0.5605530738830566 255 255 255 1.0
12166 0.04608774185180664 -1.3708477020263672 -0.6423075795173645 255 255 255 1.0
12167 0.35977423191070557 -1.402497410774231 -2.055260181427002 255 255 255 1.0
12168 0.46469736099243164 0.21355515718460083 2.135812282562256 255 255 255 1.0
12169 0.6165369749069214 1.1920995712280273 -1.0899027585983276 255 255 255 1.0
12170 0.6535801887512207 -1.0059775114059448 0.09391811490058899 255 255 255 1.0
12171 -0.8042933940887451 0.5591397881507874 -0.4305061101913452 255 255 255 1.0
12172 -1.0558221340179443 1.791540503501892 -1.5286027193069458 255 255 255 1.0
12173 0.6056868433952332 -1.5153706073760986 -1.7056825160980225 255 255 255 1.0
12174 0.1466977894306183 1.0852000713348389 -0.6753676533699036 255 255 255 1.0
12175 0.960507333278656 0.9676933884620667 -1.0612720251083374 255 255 255 1.0
12176 -0.2907816469669342 -1.2472234964370728 0.5491161942481995 255 255 255 1.0
12177 -0.019202232360839844 -1.7796987295150757 -2.11933970451355 255 255 255 1.0
12178 -0.509697437286377 1.0116369724273682 1.965989351272583 255 255 255 1.0
12179 0.07391156256198883 1.5102895498275757 1.482911467552185 255 255 255 1.0
12180 -0.8323757648468018 -0.21419446170330048 -0.04846453666687012 255 255 255 1.0
12181 -0.4271755814552307 1.0252200365066528 0.9990589022636414 255 255 255 1.0
12182 0.7268094420433044 -1.3231571912765503 -1.9084278345108032 255 255 255 1.0
12183 0.7730745077133179 -0.578950047492981 0.9589692950248718 255 255 255 1.0
12184 0.5735153555870056 0.699962317943573 -1.1506907939910889 255 255 255 1.0
12185 -0.1440068632364273 -0.6425330638885498 2.4473485946655273 255 255 255 1.0
12186 1.147300124168396 -1.0246623754501343 0.8273590803146362 255 255 255 1.0
12187 0.14478141069412231 1.4531664848327637 -2.046921968460083 255 255 255 1.0
12188 0.39102286100387573 1.361304759979248 -1.5763449668884277 255 255 255 1.0
12189 -0.7716994881629944 0.5574488043785095 0.19718235731124878 255 255 255 1.0
12190 -0.9496564865112305 -1.642942190170288 -1.99326753616333 255 255 255 1.0
12191 -0.7019480466842651 -1.0059775114059448 0.1073121652007103 255 255 255 1.0
12192 0.20249611139297485 1.4564441442489624 1.0604875087738037 255 255 255 1.0
12193 -0.6070182919502258 1.0443265438079834 -0.28429681062698364 255 255 255 1.0
12194 0.11681129038333893 1.460995078086853 -0.717026948928833 255 255 255 1.0
12195 -0.7335060238838196 0.8216156959533691 2.0245931148529053 255 255 255 1.0
12196 0.8998413681983948 1.0443265438079834 -0.4030967652797699 255 255 255 1.0
12197 0.8542978763580322 -1.3996574878692627 -1.2826420068740845 255 255 255 1.0
12198 -0.310458779335022 1.0443265438079834 0.4027777910232544 255 255 255 1.0
12199 0.2524624764919281 0.0573744960129261 2.096806287765503 255 255 255 1.0
12200 -0.2119894176721573 -1.5357468128204346 -0.6000288724899292 255 255 255 1.0
12201 -0.15565523505210876 -0.050316669046878815 2.0334224700927734 255 255 255 1.0
12202 -0.1648309826850891 -1.3445847034454346 0.3064521253108978 255 255 255 1.0
12203 0.27792441844940186 1.7680813074111938 -1.0050132274627686 255 255 255 1.0
12204 0.6016197204589844 1.720375418663025 -1.6796988248825073 255 255 255 1.0
12205 0.21117514371871948 -1.0113240480422974 -0.5708043575286865 255 255 255 1.0
12206 1.2694770097732544 0.6915756464004517 -0.672678530216217 255 255 255 1.0
12207 0.0661984458565712 -0.5924729108810425 2.4561755657196045 255 255 255 1.0
12208 1.2846434116363525 -1.4086726903915405 -0.37780675292015076 255 255 255 1.0
12209 0.9604189395904541 -1.3093215227127075 -1.6179448366165161 255 255 255 1.0
12210 -0.6175753474235535 -1.6747887134552002 -0.520984411239624 255 255 255 1.0
12211 1.1214314699172974 0.24445146322250366 -0.456297367811203 255 255 255 1.0
12212 1.1214314699172974 -0.25416338443756104 -0.1389206051826477 255 255 255 1.0
12213 0.6982331275939941 1.9070985317230225 -1.7759363651275635 255 255 255 1.0
12214 -0.4354667067527771 -1.606898307800293 -2.2680952548980713 255 255 255 1.0
12215 -0.8033071160316467 0.14473795890808105 0.7560588717460632 255 255 255 1.0
12216 0.021776586771011353 1.0921235084533691 2.1111271381378174 255 255 255 1.0
12217 -0.5625156760215759 0.6481781601905823 1.8995766639709473 255 255 255 1.0
12218 0.012200474739074707 -1.3291414976119995 -1.973209261894226 255 255 255 1.0
12219 -0.3592018485069275 1.0443265438079834 -0.9636726379394531 255 255 255 1.0
12220 -1.1880654096603394 -0.7269594669342041 0.38327300548553467 255 255 255 1.0
12221 0.7357997298240662 1.9175779819488525 -2.052039623260498 255 255 255 1.0
12222 0.1495371162891388 1.9019198417663574 -0.7468880414962769 255 255 255 1.0
12223 -0.8684608936309814 1.8473256826400757 -2.178678512573242 255 255 255 1.0
12224 -0.8033071756362915 -0.5296111106872559 -0.8119934797286987 255 255 255 1.0
12225 0.3580523729324341 -1.0059775114059448 -0.6933944225311279 255 255 255 1.0
12226 -1.058976650238037 -1.2818272113800049 -1.8189386129379272 255 255 255 1.0
12227 -0.8564155101776123 1.5061897039413452 -0.9063565135002136 255 255 255 1.0
12228 0.5774649977684021 0.699962317943573 -1.1736191511154175 255 255 255 1.0
12229 0.484717458486557 -0.3438267409801483 2.6402459144592285 255 255 255 1.0
12230 -0.12288960814476013 -1.7219796180725098 -2.232872486114502 255 255 255 1.0
12231 -0.349099338054657 1.395982265472412 -2.1203548908233643 255 255 255 1.0
12232 -0.6588440537452698 -1.090289831161499 -0.04890832304954529 255 255 255 1.0
12233 0.8503449559211731 -1.5117257833480835 -1.4920036792755127 255 255 255 1.0
12234 0.9014156460762024 1.8841487169265747 -1.3907849788665771 255 255 255 1.0
12235 1.2241061925888062 -0.02158607542514801 0.5681778788566589 255 255 255 1.0
12236 -0.9085372686386108 0.3639964163303375 0.7346885204315186 255 255 255 1.0
12237 -0.2117801308631897 0.5126000642776489 0.822885274887085 255 255 255 1.0
12238 0.48750078678131104 1.367490530014038 -1.6420929431915283 255 255 255 1.0
12239 -1.0499681234359741 0.7264425158500671 0.02783864736557007 255 255 255 1.0
12240 -0.5199439525604248 1.5373337268829346 -0.6428574919700623 255 255 255 1.0
12241 -0.17287865281105042 -0.0013842792250216007 2.0719547271728516 255 255 255 1.0
12242 0.3849489390850067 1.2965781688690186 -2.2463276386260986 255 255 255 1.0
12243 0.7707014083862305 1.720375418663025 -1.962183952331543 255 255 255 1.0
12244 0.054408133029937744 0.012159019708633423 0.7137427926063538 255 255 255 1.0
12245 -0.4855731725692749 1.6163843870162964 -1.59755277633667 255 255 255 1.0
12246 -0.4674881398677826 -1.0015926361083984 0.3716481924057007 255 255 255 1.0
12247 0.3983009457588196 0.5571085810661316 2.0923712253570557 255 255 255 1.0
12248 0.5609788298606873 1.1549873352050781 -2.189436435699463 255 255 255 1.0
12249 -1.2264758348464966 -1.4555294513702393 -1.7345175743103027 255 255 255 1.0
12250 0.7428110837936401 -1.5355710983276367 -1.16490638256073 255 255 255 1.0
12251 0.5595985651016235 -1.3291414976119995 -1.9984984397888184 255 255 255 1.0
12252 -0.8518021106719971 0.9850888848304749 -0.8146459460258484 255 255 255 1.0
12253 -0.971320629119873 -0.6880934834480286 0.4638229012489319 255 255 255 1.0
12254 -0.7175159454345703 -1.5170570611953735 -1.2407994270324707 255 255 255 1.0
12255 1.2360002994537354 -0.9223693609237671 -0.013677224516868591 255 255 255 1.0
12256 0.8688686490058899 1.4220823049545288 2.177733898162842 255 255 255 1.0
12257 -0.30259573459625244 -1.3229557275772095 -1.9404339790344238 255 255 255 1.0
12258 -0.17503002285957336 0.30113354325294495 0.9327742457389832 255 255 255 1.0
12259 1.2112771272659302 -1.6993621587753296 -1.9541693925857544 255 255 255 1.0
12260 0.7119913697242737 1.4043400287628174 2.3630876541137695 255 255 255 1.0
12261 0.7671137452125549 0.8111469149589539 1.914398193359375 255 255 255 1.0
12262 0.8411520719528198 -1.6720530986785889 -1.92894446849823 255 255 255 1.0
12263 -0.07998565584421158 -1.6820263862609863 -1.2839889526367188 255 255 255 1.0
12264 0.7545408606529236 1.155361294746399 2.4474008083343506 255 255 255 1.0
12265 0.5580241680145264 -1.700502872467041 -1.9575474262237549 255 255 255 1.0
12266 1.3017511367797852 -1.1083706617355347 -0.4915570020675659 255 255 255 1.0
12267 -0.5758280754089355 1.4851723909378052 -2.1210522651672363 255 255 255 1.0
12268 -0.030986275523900986 -1.71657395362854 -1.1501009464263916 255 255 255 1.0
12269 -0.2756398916244507 0.9607176780700684 -0.743233323097229 255 255 255 1.0
12270 -0.6076620221138 -1.0468510389328003 0.6779696345329285 255 255 255 1.0
12271 0.5556575655937195 1.808443546295166 -1.2459884881973267 255 255 255 1.0
12272 1.0746477842330933 1.1493780612945557 2.426212787628174 255 255 255 1.0
12273 -0.2829757034778595 -1.0468510389328003 -0.5250208377838135 255 255 255 1.0
12274 1.0931131839752197 0.9607177376747131 0.23001408576965332 255 255 255 1.0
12275 -0.541221559047699 -1.6724988222122192 -0.9852041006088257 255 255 255 1.0
12276 1.121431589126587 -0.6715793609619141 -0.9246519207954407 255 255 255 1.0
12277 0.490580677986145 0.7200810313224792 2.2039177417755127 255 255 255 1.0
12278 0.3983009457588196 0.31532028317451477 2.1521620750427246 255 255 255 1.0
12279 -0.9234695434570312 -0.6880934834480286 -0.6418043375015259 255 255 255 1.0
12280 1.0666403770446777 -1.2087284326553345 -1.762074589729309 255 255 255 1.0
12281 -0.4888249337673187 1.5071296691894531 -0.3354722559452057 255 255 255 1.0
12282 0.8515486121177673 1.0856083631515503 2.609031915664673 255 255 255 1.0
12283 -1.1784389019012451 0.9370295405387878 -0.1455722600221634 255 255 255 1.0
12284 -0.10278314352035522 -0.8100829124450684 -1.0612719058990479 255 255 255 1.0
12285 -0.19463375210762024 -0.2330218106508255 0.8331582546234131 255 255 255 1.0
12286 0.820105791091919 1.3293241262435913 -1.2465335130691528 255 255 255 1.0
12287 -0.8033071756362915 -0.30767104029655457 0.5810632705688477 255 255 255 1.0
12288 0.6333204507827759 -1.0093812942504883 -0.688636302947998 255 255 255 1.0
12289 -0.3937135338783264 -0.21557018160820007 0.7699167728424072 255 255 255 1.0
12290 1.1142644882202148 -0.5103750824928284 0.9700342416763306 255 255 255 1.0
12291 1.1800411939620972 -1.3337119817733765 -0.5575271844863892 255 255 255 1.0
12292 0.5756202340126038 -0.6616131067276001 -1.175404667854309 255 255 255 1.0
12293 0.16722220182418823 1.531814694404602 1.4866795539855957 255 255 255 1.0
12294 -1.0019323825836182 1.2223262786865234 -1.931831955909729 255 255 255 1.0
12295 -0.6333678364753723 -0.8302316665649414 2.067654609680176 255 255 255 1.0
12296 0.39830100536346436 -0.7250454425811768 1.9842604398727417 255 255 255 1.0
12297 0.3684438467025757 1.531814694404602 1.360054612159729 255 255 255 1.0
12298 0.21798813343048096 1.0458325147628784 0.5055720806121826 255 255 255 1.0
12299 -1.0875575542449951 -0.8883566856384277 -0.23660224676132202 255 255 255 1.0
12300 -0.8033071756362915 0.23020172119140625 -0.7822948694229126 255 255 255 1.0
12301 1.2420415878295898 -0.4109099805355072 0.43780094385147095 255 255 255 1.0
12302 -0.12253450602293015 -1.2718398571014404 0.8266317844390869 255 255 255 1.0
12303 0.9655215740203857 -1.5008825063705444 -1.4000996351242065 255 255 255 1.0
12304 -0.5791745185852051 -1.36933171749115 -0.9533308744430542 255 255 255 1.0
12305 -0.2436484843492508 0.21547210216522217 0.7137428522109985 255 255 255 1.0
12306 -0.34603452682495117 1.2037370204925537 -0.4475439488887787 255 255 255 1.0
12307 0.9193015694618225 1.4720351696014404 -1.9564613103866577 255 255 255 1.0
12308 -0.8076884746551514 0.5647379755973816 0.14190196990966797 255 255 255 1.0
12309 0.36099082231521606 1.531814694404602 1.580188512802124 255 255 255 1.0
12310 1.2588993310928345 1.128638505935669 0.1362392008304596 255 255 255 1.0
12311 1.2541223764419556 -0.9223693609237671 -0.42090046405792236 255 255 255 1.0
12312 -0.31483691930770874 1.1877011060714722 -1.7180408239364624 255 255 255 1.0
12313 1.5282553434371948 -1.0174529552459717 -0.7644993662834167 255 255 255 1.0
12314 0.9185860753059387 -1.459388256072998 -0.18296650052070618 255 255 255 1.0
12315 -0.803307056427002 -0.8747258186340332 -0.1355699896812439 255 255 255 1.0
12316 1.4703413248062134 -1.2082204818725586 -0.38920295238494873 255 255 255 1.0
12317 0.39725542068481445 -0.23611658811569214 0.9589692950248718 255 255 255 1.0
12318 0.8371312618255615 -0.9875764846801758 1.816292643547058 255 255 255 1.0
12319 0.45925986766815186 0.4986729621887207 2.6194515228271484 255 255 255 1.0
12320 0.4839766025543213 0.11006368696689606 2.5810065269470215 255 255 255 1.0
12321 -0.4310755431652069 -1.3592562675476074 -0.8296927213668823 255 255 255 1.0
12322 0.14471539855003357 0.9475864171981812 1.8754346370697021 255 255 255 1.0
12323 -0.17361687123775482 -1.7715070247650146 -0.4202664792537689 255 255 255 1.0
12324 0.4792564809322357 0.9607177376747131 -0.7402040958404541 255 255 255 1.0
12325 -0.4030565619468689 -1.1166383028030396 -2.162933349609375 255 255 255 1.0
12326 -0.5098780393600464 -0.08148479461669922 -1.0612720251083374 255 255 255 1.0
12327 1.1214314699172974 -0.9609463810920715 0.6229081749916077 255 255 255 1.0
12328 -0.7798392176628113 -1.7714920043945312 -2.2094318866729736 255 255 255 1.0
12329 -0.5811469554901123 -1.3916155099868774 -0.741692066192627 255 255 255 1.0
12330 -0.10044294595718384 -1.006924033164978 0.9989928007125854 255 255 255 1.0
12331 -0.17602044343948364 -1.4694921970367432 -2.1198222637176514 255 255 255 1.0
12332 -0.7880401611328125 -0.318903386592865 0.9589692950248718 255 255 255 1.0
12333 0.6675572395324707 -1.1323399543762207 -1.2988888025283813 255 255 255 1.0
12334 0.5708884596824646 1.4130918979644775 -1.98355233669281 255 255 255 1.0
12335 -0.26123321056365967 0.21459843218326569 2.3279826641082764 255 255 255 1.0
12336 1.1411715745925903 1.9019198417663574 -1.9761353731155396 255 255 255 1.0
12337 -0.967876672744751 1.4642645120620728 -1.0862008333206177 255 255 255 1.0
12338 0.3152512311935425 -0.6604673266410828 0.8921605348587036 255 255 255 1.0
12339 -0.692243218421936 -1.207160234451294 -0.7178803086280823 255 255 255 1.0
12340 -0.38533473014831543 -0.9223694801330566 -0.8477492332458496 255 255 255 1.0
12341 -0.7800363898277283 -0.5017880797386169 -0.2869892418384552 255 255 255 1.0
12342 -0.1765826940536499 1.0443265438079834 0.6732533574104309 255 255 255 1.0
12343 0.1224571242928505 -0.1502237468957901 2.1486191749572754 255 255 255 1.0
12344 -0.7773697376251221 -0.6122892498970032 -1.0612719058990479 255 255 255 1.0
12345 0.9417544603347778 1.2426977157592773 2.0137181282043457 255 255 255 1.0
12346 0.8262791037559509 0.5918378233909607 2.3413052558898926 255 255 255 1.0
12347 0.6718258857727051 0.9509375095367432 0.9589692950248718 255 255 255 1.0
12348 0.9829667210578918 -1.6820263862609863 -1.7216134071350098 255 255 255 1.0
12349 0.4537101984024048 -1.0468510389328003 0.5803316831588745 255 255 255 1.0
12350 1.181125283241272 1.884283423423767 -1.784929633140564 255 255 255 1.0
12351 -0.48706331849098206 -0.5520144701004028 0.822885274887085 255 255 255 1.0
12352 -0.31223738193511963 -1.0059775114059448 -0.3633672595024109 255 255 255 1.0
12353 -1.1398460865020752 1.2458714246749878 -1.4482781887054443 255 255 255 1.0
12354 -0.8033071756362915 -0.36069104075431824 0.22206342220306396 255 255 255 1.0
12355 0.8363019824028015 1.4461205005645752 -2.26155948638916 255 255 255 1.0
12356 0.045382916927337646 1.225042462348938 0.4968940019607544 255 255 255 1.0
12357 0.6932526230812073 -0.010002076625823975 0.9589692950248718 255 255 255 1.0
12358 -0.6912175416946411 -0.6610640287399292 2.145205497741699 255 255 255 1.0
12359 -0.5621700882911682 -1.6820263862609863 -1.880319595336914 255 255 255 1.0
12360 0.3251517117023468 0.9795185327529907 -1.339690923690796 255 255 255 1.0
12361 0.10949602723121643 -0.6616131067276001 -1.4541821479797363 255 255 255 1.0
12362 1.0240836143493652 -0.9223693609237671 -0.47229260206222534 255 255 255 1.0
12363 -0.8073326945304871 -0.15863031148910522 -0.0650663822889328 255 255 255 1.0
12364 1.1227385997772217 -1.2922340631484985 -0.305834025144577 255 255 255 1.0
12365 -0.1076967716217041 0.32310399413108826 2.1464924812316895 255 255 255 1.0
12366 0.3032626807689667 1.39386785030365 1.778059959411621 255 255 255 1.0
12367 1.2161178588867188 -1.3777151107788086 -0.20129311084747314 255 255 255 1.0
12368 1.0733875036239624 -1.0902903079986572 -0.6591902375221252 255 255 255 1.0
12369 -0.6813417673110962 1.0443265438079834 0.0027976036071777344 255 255 255 1.0
12370 0.42862802743911743 1.4564441442489624 1.5652003288269043 255 255 255 1.0
12371 0.5712164044380188 -1.7437021732330322 -1.0420360565185547 255 255 255 1.0
12372 1.0398261547088623 -1.3729796409606934 -1.9830529689788818 255 255 255 1.0
12373 0.8955205678939819 -1.2627191543579102 -2.1000704765319824 255 255 255 1.0
12374 0.7639312744140625 -1.3754849433898926 -1.9910392761230469 255 255 255 1.0
12375 -0.09505508095026016 1.377713680267334 -0.884743869304657 255 255 255 1.0
12376 -1.0661137104034424 -0.6880934834480286 -0.20176970958709717 255 255 255 1.0
12377 0.7966189980506897 -0.18768781423568726 0.9589692950248718 255 255 255 1.0
12378 -0.9203503131866455 0.9565336108207703 -0.7459069490432739 255 255 255 1.0
12379 0.03879423066973686 1.919558048248291 -1.4996964931488037 255 255 255 1.0
12380 0.6429111957550049 1.6217011213302612 -1.724762201309204 255 255 255 1.0
12381 -0.3627611994743347 -1.1597477197647095 -0.4233381152153015 255 255 255 1.0
12382 -0.1962977647781372 1.0572199821472168 0.5055720806121826 255 255 255 1.0
12383 0.3428765833377838 1.6899158954620361 -0.955864429473877 255 255 255 1.0
12384 -0.6121571660041809 -0.9945729970932007 1.9352258443832397 255 255 255 1.0
12385 -1.07859206199646 1.7098206281661987 -1.6174603700637817 255 255 255 1.0
12386 0.39830097556114197 -0.8122373819351196 2.4613637924194336 255 255 255 1.0
12387 0.25267064571380615 -1.869266390800476 -1.19325590133667 255 255 255 1.0
12388 -1.2074707746505737 -1.439279556274414 -1.5156128406524658 255 255 255 1.0
12389 0.10265356302261353 -0.13999713957309723 2.3431808948516846 255 255 255 1.0
12390 -0.6912174820899963 -0.8961453437805176 1.913675308227539 255 255 255 1.0
12391 -1.2499476671218872 0.8121071457862854 -0.4036376178264618 255 255 255 1.0
12392 -0.7490917444229126 -0.4966738522052765 0.44152024388313293 255 255 255 1.0
12393 -0.4665597677230835 1.0443265438079834 0.31321823596954346 255 255 255 1.0
12394 -0.8033071756362915 -0.034676700830459595 -0.348497599363327 255 255 255 1.0
12395 -1.0433343648910522 0.21919691562652588 0.6535840630531311 255 255 255 1.0
12396 0.23254692554473877 1.6719591617584229 -1.4247161149978638 255 255 255 1.0
12397 0.6237427592277527 1.3502999544143677 -1.6402673721313477 255 255 255 1.0
12398 0.037375763058662415 1.4564441442489624 1.2447941303253174 255 255 255 1.0
12399 -0.005443495698273182 1.539599061012268 -1.1029322147369385 255 255 255 1.0
12400 0.7349932789802551 1.3654264211654663 2.5729787349700928 255 255 255 1.0
12401 0.7820888757705688 1.1580207347869873 2.7106289863586426 255 255 255 1.0
12402 0.3234071433544159 -0.5824980735778809 2.4579343795776367 255 255 255 1.0
12403 1.105191707611084 0.9607177376747131 -0.9209474325180054 255 255 255 1.0
12404 0.0012071579694747925 -1.615241527557373 -1.1191250085830688 255 255 255 1.0
12405 0.9518728256225586 -1.2557010650634766 -1.444076418876648 255 255 255 1.0
12406 0.7022888660430908 -1.0349102020263672 -0.5884028077125549 255 255 255 1.0
12407 1.0989201068878174 1.8862545490264893 -2.086019515991211 255 255 255 1.0
12408 0.13452792167663574 1.128638505935669 -0.7559875249862671 255 255 255 1.0
12409 -1.0667593479156494 0.2059786170721054 0.6702349185943604 255 255 255 1.0
12410 1.2694770097732544 -1.0433025360107422 -0.38459068536758423 255 255 255 1.0
12411 0.5377753376960754 -1.701997995376587 -1.7943884134292603 255 255 255 1.0
12412 -0.600112795829773 -1.0059775114059448 -0.713151752948761 255 255 255 1.0
12413 1.0824668407440186 0.5259766578674316 0.8849700689315796 255 255 255 1.0
12414 1.2694770097732544 0.008389830589294434 0.2863723337650299 255 255 255 1.0
12415 0.7104266285896301 -1.352062463760376 -1.7920950651168823 255 255 255 1.0
12416 -0.8101663589477539 -1.5002294778823853 -1.4333233833312988 255 255 255 1.0
12417 -0.5910608768463135 1.0443265438079834 -1.0347285270690918 255 255 255 1.0
12418 1.2241061925888062 -0.042786866426467896 0.4423219561576843 255 255 255 1.0
12419 1.2448244094848633 0.5667475461959839 0.3250049352645874 255 255 255 1.0
12420 1.66310715675354 -0.9927946329116821 -0.5134919285774231 255 255 255 1.0
12421 -0.8033071756362915 0.013486862182617188 -0.0686180591583252 255 255 255 1.0
12422 -0.542415976524353 1.774202823638916 -2.228104591369629 255 255 255 1.0
12423 -0.7780823111534119 0.7264425158500671 0.5095832347869873 255 255 255 1.0
12424 -0.83726567029953 -1.5208256244659424 -0.8754581809043884 255 255 255 1.0
12425 1.2694770097732544 -0.13169029355049133 -0.16616863012313843 255 255 255 1.0
12426 -0.9856266379356384 -0.8883566856384277 0.2402712106704712 255 255 255 1.0
12427 -0.5905860662460327 -1.0059775114059448 0.850767195224762 255 255 255 1.0
12428 0.39832931756973267 0.7195904850959778 1.8763229846954346 255 255 255 1.0
12429 -0.9163126945495605 -0.4703325033187866 2.137331008911133 255 255 255 1.0
12430 0.4558057487010956 -1.1885775327682495 2.26073956489563 255 255 255 1.0
12431 -0.3836382031440735 1.0443265438079834 -0.534800112247467 255 255 255 1.0
12432 -0.9860788583755493 -1.41581130027771 -2.154859781265259 255 255 255 1.0
12433 -0.21133483946323395 -1.696401596069336 -0.25055548548698425 255 255 255 1.0
12434 -0.0021133944392204285 -1.4934587478637695 0.15544794499874115 255 255 255 1.0
12435 -0.1519341766834259 -1.2463687658309937 -2.119748115539551 255 255 255 1.0
12436 0.5596252679824829 0.7117062211036682 -1.3509191274642944 255 255 255 1.0
12437 0.9557949304580688 -0.9223693609237671 -0.5745819211006165 255 255 255 1.0
12438 -0.7925389409065247 1.8424941301345825 -0.8797489404678345 255 255 255 1.0
12439 -0.511464536190033 -1.0059775114059448 0.043571919202804565 255 255 255 1.0
12440 0.7950068116188049 1.8467638492584229 -2.116834878921509 255 255 255 1.0
12441 0.2832852005958557 -1.4180880784988403 0.09610745310783386 255 255 255 1.0
12442 0.7394663095474243 1.88254976272583 -1.6099438667297363 255 255 255 1.0
12443 0.059548258781433105 -0.14191409945487976 0.7534090280532837 255 255 255 1.0
12444 0.059548262506723404 -0.25499385595321655 0.7883967757225037 255 255 255 1.0
12445 0.10764411091804504 -1.4934587478637695 0.21705883741378784 255 255 255 1.0
12446 -0.25236257910728455 1.6657298803329468 -0.2481679767370224 255 255 255 1.0
12447 0.842315673828125 1.491692304611206 -1.4835208654403687 255 255 255 1.0
12448 0.013725042343139648 1.424562931060791 -0.9394627809524536 255 255 255 1.0
12449 0.05564511567354202 1.720375418663025 -1.0909044742584229 255 255 255 1.0
12450 1.2133561372756958 -1.7219796180725098 -1.9399360418319702 255 255 255 1.0
12451 -1.2953484058380127 0.915188729763031 -0.1479940265417099 255 255 255 1.0
12452 -0.46919775009155273 -1.749090552330017 -0.37369227409362793 255 255 255 1.0
12453 -0.5933886170387268 -1.0518295764923096 2.263056516647339 255 255 255 1.0
12454 0.3085325062274933 0.30718815326690674 0.822885274887085 255 255 255 1.0
12455 0.8392489552497864 -0.09906886518001556 2.517056703567505 255 255 255 1.0
12456 -0.7173189520835876 0.054732561111450195 -1.0612719058990479 255 255 255 1.0
12457 0.3983009457588196 0.6769434213638306 2.276618480682373 255 255 255 1.0
12458 1.216192603111267 1.4872181415557861 -1.9401216506958008 255 255 255 1.0
12459 0.5726460218429565 1.265990972518921 1.6616413593292236 255 255 255 1.0
12460 0.5547611117362976 1.5313498973846436 2.268613576889038 255 255 255 1.0
12461 0.23576024174690247 -0.6225389838218689 0.822885274887085 255 255 255 1.0
12462 1.0236517190933228 -1.1705820560455322 -1.7047773599624634 255 255 255 1.0
12463 -0.5240323543548584 -1.0059775114059448 0.5846738815307617 255 255 255 1.0
12464 -0.2476816177368164 1.4253441095352173 0.5205333828926086 255 255 255 1.0
12465 0.7671137452125549 0.8460446000099182 1.948739767074585 255 255 255 1.0
12466 -0.3503929376602173 -1.2884289026260376 -2.0137226581573486 255 255 255 1.0
12467 0.1566174477338791 -0.1297225058078766 0.822885274887085 255 255 255 1.0
12468 1.238366723060608 0.9403185844421387 -0.3692508339881897 255 255 255 1.0
12469 -1.1047159433364868 1.7244465351104736 -2.040191650390625 255 255 255 1.0
12470 -0.9716935157775879 -0.9467397928237915 -0.7575536966323853 255 255 255 1.0
12471 1.1214314699172974 -0.20928680896759033 0.6509146690368652 255 255 255 1.0
12472 0.84290611743927 1.0443260669708252 0.5451071262359619 255 255 255 1.0
12473 -0.3202369809150696 1.7450590133666992 -0.7379868030548096 255 255 255 1.0
12474 0.12473954260349274 1.162122130393982 -1.177442193031311 255 255 255 1.0
12475 0.1975288987159729 0.17367413640022278 2.3468894958496094 255 255 255 1.0
12476 -1.1679445505142212 -0.7483363747596741 -0.6099039316177368 255 255 255 1.0
12477 0.5301638245582581 -1.0289151668548584 0.9770017266273499 255 255 255 1.0
12478 0.0064525119960308075 -0.16252382099628448 1.7139147520065308 255 255 255 1.0
12479 0.12568388879299164 1.720375418663025 -1.1306675672531128 255 255 255 1.0
12480 -0.22925031185150146 -0.43825870752334595 2.483367681503296 255 255 255 1.0
12481 -0.7740028500556946 0.469255656003952 -0.5866742730140686 255 255 255 1.0
12482 1.145548939704895 -1.6610417366027832 -1.5947104692459106 255 255 255 1.0
12483 0.47583281993865967 -0.9411694407463074 -1.3313615322113037 255 255 255 1.0
12484 -0.5613541603088379 1.1184865236282349 -0.6719821691513062 255 255 255 1.0
12485 -0.6554068922996521 1.6450581550598145 -0.582025945186615 255 255 255 1.0
12486 1.2840243577957153 -1.138624906539917 -0.8226643800735474 255 255 255 1.0
12487 0.2851555049419403 1.4920634031295776 -1.5413926839828491 255 255 255 1.0
12488 -0.8049430251121521 1.5342907905578613 -1.651515007019043 255 255 255 1.0
12489 -0.5832209587097168 1.9082921743392944 -1.4334468841552734 255 255 255 1.0
12490 -0.2185453176498413 0.31321728229522705 -1.0612719058990479 255 255 255 1.0
12491 -0.3020429313182831 -1.6699855327606201 -0.3974679708480835 255 255 255 1.0
12492 0.2500731945037842 -0.49089953303337097 2.474085807800293 255 255 255 1.0
12493 0.007951078936457634 1.7108478546142578 -0.968246579170227 255 255 255 1.0
12494 0.3983009457588196 0.3868075907230377 2.2082483768463135 255 255 255 1.0
12495 -0.34735575318336487 -0.14140261709690094 1.0207127332687378 255 255 255 1.0
12496 -0.7287644147872925 0.7354781031608582 0.9589692950248718 255 255 255 1.0
12497 -0.3002658188343048 -1.1688804626464844 -0.40052691102027893 255 255 255 1.0
12498 0.6106235980987549 -1.5034849643707275 -1.2387384176254272 255 255 255 1.0
12499 -0.25141626596450806 1.2716926336288452 -1.8894859552383423 255 255 255 1.0
12500 0.10062094032764435 1.7332347631454468 -0.4867221713066101 255 255 255 1.0
12501 0.9280422329902649 -1.5442594289779663 -1.8278508186340332 255 255 255 1.0
12502 -0.8724783062934875 0.9176844358444214 2.080490827560425 255 255 255 1.0
12503 -0.6865537166595459 0.7642529606819153 2.4323954582214355 255 255 255 1.0
12504 1.1375064849853516 -1.2529486417770386 -0.40518414974212646 255 255 255 1.0
12505 1.2694770097732544 -0.5474348068237305 0.2384369969367981 255 255 255 1.0
12506 0.22793206572532654 0.7659878730773926 1.868141770362854 255 255 255 1.0
12507 0.46699628233909607 1.162122130393982 -1.2311232089996338 255 255 255 1.0
12508 0.7819840312004089 -0.6926485300064087 1.7402243614196777 255 255 255 1.0
12509 -0.6672099828720093 -0.9223694801330566 -0.7381762266159058 255 255 255 1.0
12510 1.2694770097732544 0.09551581740379333 -0.0843597948551178 255 255 255 1.0
12511 0.0640387088060379 -1.4180880784988403 0.15606816112995148 255 255 255 1.0
12512 1.0851514339447021 1.0844162702560425 0.8133664727210999 255 255 255 1.0
12513 0.07321202754974365 0.9758159518241882 -0.965769350528717 255 255 255 1.0
12514 -0.1766127645969391 0.16669119894504547 1.7450202703475952 255 255 255 1.0
12515 1.2694770097732544 -0.4263395071029663 0.15530656278133392 255 255 255 1.0
12516 -0.2989915907382965 -0.9639315009117126 0.9916321039199829 255 255 255 1.0
12517 -0.6912175416946411 -0.4162070155143738 2.150923490524292 255 255 255 1.0
12518 -0.1274978518486023 0.8539712429046631 1.8607826232910156 255 255 255 1.0
12519 0.4386797547340393 0.8008292317390442 0.9589692950248718 255 255 255 1.0
12520 -0.5643752217292786 -1.4607528448104858 -2.019418239593506 255 255 255 1.0
12521 -1.009108066558838 1.2580950260162354 -1.2292733192443848 255 255 255 1.0
12522 0.0266089029610157 -1.3229557275772095 -1.3219735622406006 255 255 255 1.0
12523 1.3773716688156128 -1.0288282632827759 -0.6250921487808228 255 255 255 1.0
12524 0.24537721276283264 0.9391207098960876 1.8695068359375 255 255 255 1.0
12525 0.6044750809669495 0.47987064719200134 2.260711669921875 255 255 255 1.0
12526 0.6072765588760376 0.85340416431427 1.7219672203063965 255 255 255 1.0
12527 0.9494439363479614 -1.015250325202942 -0.08979704976081848 255 255 255 1.0
12528 0.09055929630994797 1.6589694023132324 -1.1265405416488647 255 255 255 1.0
12529 -1.1159794330596924 -1.8635708093643188 -1.5332146883010864 255 255 255 1.0
12530 0.8909244537353516 1.3853551149368286 -2.0758602619171143 255 255 255 1.0
12531 0.007541239261627197 -0.9411694407463074 -0.9616420269012451 255 255 255 1.0
12532 0.17706367373466492 0.331270694732666 2.127932071685791 255 255 255 1.0
12533 -1.091921091079712 0.4134782552719116 0.49015700817108154 255 255 255 1.0
12534 0.03648968040943146 0.8864457011222839 0.9589692950248718 255 255 255 1.0
12535 -0.5077524781227112 -0.9442554116249084 0.9589692950248718 255 255 255 1.0
12536 -0.3957044184207916 -1.1427034139633179 -1.4537718296051025 255 255 255 1.0
12537 1.028521180152893 1.0443265438079834 -0.7729711532592773 255 255 255 1.0
12538 0.3983008861541748 -0.1283894032239914 2.281522274017334 255 255 255 1.0
12539 1.2386707067489624 0.548724353313446 0.6793090105056763 255 255 255 1.0
12540 1.1214314699172974 0.4069647789001465 0.094307541847229 255 255 255 1.0
12541 1.1214314699172974 0.3315904438495636 0.1277059018611908 255 255 255 1.0
12542 1.2195696830749512 -0.45332199335098267 0.9216985106468201 255 255 255 1.0
12543 0.05441915988922119 0.7167932987213135 -1.0612719058990479 255 255 255 1.0
12544 0.3922976553440094 -1.3149518966674805 -1.008077621459961 255 255 255 1.0
12545 0.9036288857460022 1.0122121572494507 2.681567430496216 255 255 255 1.0
12546 0.2673368453979492 1.1286389827728271 -0.30316102504730225 255 255 255 1.0
12547 -0.9529784917831421 -0.5573640465736389 0.12040258198976517 255 255 255 1.0
12548 -0.9753655195236206 1.6783876419067383 -1.9673213958740234 255 255 255 1.0
12549 -1.0710623264312744 -1.6918706893920898 -1.774858832359314 255 255 255 1.0
12550 0.09312478452920914 -1.3291414976119995 -1.2236649990081787 255 255 255 1.0
12551 0.39687591791152954 1.5179640054702759 -2.1180596351623535 255 255 255 1.0
12552 0.9123550057411194 -1.8204351663589478 -1.4023385047912598 255 255 255 1.0
12553 0.9253789186477661 1.3970229625701904 -1.8670374155044556 255 255 255 1.0
12554 0.2623732089996338 -0.38084378838539124 2.0338685512542725 255 255 255 1.0
12555 0.8392490148544312 -0.3702531158924103 2.608945369720459 255 255 255 1.0
12556 0.28161150217056274 -1.4196730852127075 -1.4236316680908203 255 255 255 1.0
12557 0.5941500663757324 1.1286389827728271 -0.32043904066085815 255 255 255 1.0
12558 0.767113983631134 0.4260881543159485 2.502566337585449 255 255 255 1.0
12559 -0.7093013525009155 0.9607176184654236 -0.9284378886222839 255 255 255 1.0
12560 -0.8504221439361572 0.48961275815963745 2.037327527999878 255 255 255 1.0
12561 0.4769284129142761 -0.06485557556152344 2.0984809398651123 255 255 255 1.0
12562 0.9601094722747803 -1.2308763265609741 -2.19036602973938 255 255 255 1.0
12563 -0.558009147644043 0.6726396083831787 -1.0612719058990479 255 255 255 1.0
12564 -0.2017631083726883 1.4329503774642944 -1.9535857439041138 255 255 255 1.0
12565 -0.8454146981239319 1.7834532260894775 -1.1684479713439941 255 255 255 1.0
12566 0.1937030553817749 -0.4241914451122284 2.4858481884002686 255 255 255 1.0
12567 1.2694770097732544 -0.1874353289604187 0.30133727192878723 255 255 255 1.0
12568 1.4455101490020752 -1.27847158908844 -0.12460626661777496 255 255 255 1.0
12569 -0.6845434904098511 -0.5307829976081848 2.0147321224212646 255 255 255 1.0
12570 1.078805923461914 1.2077162265777588 -1.8285577297210693 255 255 255 1.0
12571 0.9228208661079407 -1.6666510105133057 -1.9046803712844849 255 255 255 1.0
12572 0.41938748955726624 1.531814694404602 1.620695948600769 255 255 255 1.0
12573 1.2694770097732544 -0.6571582555770874 -0.3916178345680237 255 255 255 1.0
12574 0.3999563753604889 -1.054437518119812 2.106748342514038 255 255 255 1.0
12575 -0.6588447093963623 0.2210988998413086 -1.0612719058990479 255 255 255 1.0
12576 -1.040506362915039 -0.531315267086029 0.4896079897880554 255 255 255 1.0
12577 1.1727662086486816 -1.1939433813095093 -0.44357988238334656 255 255 255 1.0
12578 0.16509494185447693 -1.1839687824249268 -1.6438480615615845 255 255 255 1.0
12579 0.62147456407547 1.9019198417663574 -2.17258620262146 255 255 255 1.0
12580 0.9139578938484192 -1.8245292901992798 -2.206514835357666 255 255 255 1.0
12581 0.13598865270614624 -0.6557880640029907 -1.0612720251083374 255 255 255 1.0
12582 0.5952487587928772 1.5254783630371094 -1.9844970703125 255 255 255 1.0
12583 -0.3685873746871948 1.0207815170288086 0.9188797473907471 255 255 255 1.0
12584 0.14221374690532684 -1.4874320030212402 -1.3670932054519653 255 255 255 1.0
12585 0.39830100536346436 -0.8292410373687744 2.022570848464966 255 255 255 1.0
12586 -0.4724573791027069 -1.1763696670532227 -0.37737834453582764 255 255 255 1.0
12587 -0.43327975273132324 -0.26052209734916687 0.7229574918746948 255 255 255 1.0
12588 -0.8125376105308533 -0.16383522748947144 -0.03058842569589615 255 255 255 1.0
12589 -0.6119827628135681 -1.6724988222122192 -1.0837417840957642 255 255 255 1.0
12590 1.2694770097732544 0.260855495929718 -0.36917561292648315 255 255 255 1.0
12591 1.0187822580337524 -1.2096573114395142 -0.6435577869415283 255 255 255 1.0
12592 -1.226083755493164 1.3454480171203613 -1.739999532699585 255 255 255 1.0
12593 0.3147505521774292 -0.09315017610788345 2.1071829795837402 255 255 255 1.0
12594 -0.402252733707428 1.0047656297683716 0.9589692950248718 255 255 255 1.0
12595 -0.3212137222290039 -1.5525240898132324 -0.2508355379104614 255 255 255 1.0
12596 0.103432297706604 0.5844011306762695 -1.0612719058990479 255 255 255 1.0
12597 -0.6653538942337036 -0.2791178822517395 -1.0612719058990479 255 255 255 1.0
12598 -0.011765152215957642 1.6215699911117554 -2.0408504009246826 255 255 255 1.0
12599 -1.0690360069274902 -1.7241443395614624 -1.7841732501983643 255 255 255 1.0
12600 0.48137450218200684 -0.7106379270553589 1.735404133796692 255 255 255 1.0
12601 0.042670637369155884 -0.6975311040878296 0.822885274887085 255 255 255 1.0
12602 -0.8018741607666016 0.19152088463306427 -0.2293429672718048 255 255 255 1.0
12603 -0.49342161417007446 -1.3229557275772095 -1.5232261419296265 255 255 255 1.0
