# 3D point list with one line of data per point:
#   POINT3D_ID, X, Y, Z, R, G, B, ERROR, TRACK[] as (IMAGE_ID, POINT2D_IDX)
# Number of points: 354, mean track length: 4.4923771462403792
10342 -1.0659883435368525 -0.0048228780931608862 2.9373948778811365 151 99 73 0.3448410173188759 25 3664 76 3668 100 3360 56 3883 16 3976
10343 0.44279100745000027 0.1877515369374366 2.9014202455063551 255 228 175 0.58331203197383852 25 3347 76 3345 100 3361 39 3109 80 3338 31 2640 57 2729 66 3117 72 2762 22 2194
10344 0.50768329542904189 0.17113165700908278 2.9120297445308498 254 227 176 0.45270131002444314 25 3341 76 3339 100 3367 39 3118 28 2817
10345 0.11834601971114045 0.093917835416463646 2.9553335810514061 253 225 173 0.44548766911656773 45 3302 100 3383 39 3113 80 3562 28 2785
10347 -0.098052166651598632 -0.11980782984473164 3.0155293380118118 250 225 173 0.2647921133876493 86 2806 100 3436 39 3160 80 3610 28 2804
10348 -0.30484431202365692 -0.17699474402891607 3.0009645976903583 95 63 48 1.3550322041772165 25 3491 76 3491 100 3437 39 3145 80 3614 66 3414 22 2155 12 2613 71 2670
10349 -0.41795266098351014 -0.2336838040776299 3.0068257114456496 157 101 71 1.4014762370081451 25 3226 76 3498 100 3447 39 3150 80 3625 28 2650 16 3826 56 3747 8 3296 73 3074 35 3228
10351 -1.1164448482142848 0.15663428227018122 1.8374608682760087 255 236 75 0.56559799937510835 45 3554 100 3525 80 3676
10352 0.81269463017254207 -0.18934037629101597 1.9785853858697382 255 200 54 0.54241895460665379 76 3524 100 3549 39 3297
10353 0.8948399183046023 0.038722574196875567 2.9440523577500382 232 217 181 0.27894247497174529 86 3044 100 3586 39 3334 80 3737 28 2995
10354 0.8948399183046023 0.038722574196875567 2.9440523577500382 232 217 181 0.27894247497174529 86 3045 100 3587 39 3335 80 3736 28 2996
10356 0.4148819455289996 -0.48370018904355316 3.1010889943034479 151 99 70 1.0054274727815324 25 3472 76 3470 100 3604 39 3353 80 3754 28 3009 31 2744 57 3088 72 3106 66 3491 22 2507
10357 0.53616807916267706 0.18822692427286111 1.8102160837715937 255 253 63 0.72950093994746867 86 3124 100 3614 39 3376 28 3053 31 2865 57 3106 66 3192 72 3126 22 2589 14 2436 61 2920 12 3045
10358 -0.69648601553573197 0.018753736155586308 1.8813898070744144 255 250 65 0.33496859448579808 45 3185 100 3617 80 3770 66 3503 72 3122
10359 -1.1277865012683794 0.1978225120182375 2.148700175290001 191 194 217 1.2550179849276848 86 2940 100 3621 39 3371 80 3776 28 3029 31 2857 57 3158 66 3651 72 3242 22 2588 14 2438 61 2983 12 3470 6 2915
10360 0.43168282427252691 -0.59796378055294264 1.9220463549744304 255 246 67 0.74104662840928182 86 3146 100 3642 39 3458 80 3795 28 3073
10362 0.38061930899492158 0.013980815517381869 1.6168082184840904 18 14 4 1.6286850876413752 86 3227 100 3682 39 3435 80 3829 28 3038
10364 -1.1015907477776876 0.072416202302436672 2.9061507116646066 41 24 17 0.41414374449774538 25 3780 76 3786 100 3705 47 3202
10366 -0.60892816567055263 0.34108545352690389 2.1818304325873097 255 209 61 1.0153700602081361 45 3671 100 3720 39 3480 86 3222
10367 -1.0508155050700398 0.18999335917507904 2.866850177877259 25 24 26 1.6157793634735658 76 3809 100 3737 39 3494 80 3892 28 3114 86 3200 31 2906 57 3210 22 2666 14 2498 84 1916 52 2667 69 2448 63 2687
10368 -0.98945616602416719 -0.0019863529294559326 2.9203316711413225 106 72 56 1.3674764531444119 25 3818 76 3831 100 3738 39 3499 80 3893
10369 0.073102431145214891 0.18159653234237996 1.746925190204903 240 208 70 0.72502367862019368 45 3691 100 3745 39 3505 80 3898 28 3157 86 3246
10370 -1.2227781141888554 0.20893810662806425 2.7017072151304213 27 25 24 1.3568804290501306 86 3224 100 3761 39 3489 80 3913
10371 -1.1603822376693178 0.35635875181776194 2.3896964881417877 163 166 187 1.1561924623604514 80 3933 57 3244 22 2699 14 2522
10372 -0.63312113744274801 0.069078255876515351 2.3594454924597463 217 210 216 1.6273601428280056 86 3266 100 3783 39 3533
10373 0.15184265626050042 -0.52474902849083072 3.2891594874754366 0 0 0 1.3172300300422046 25 3848 45 3733 76 3857 100 3792 80 3947
10374 0.47883501815541341 0.15311806556119759 2.8573508435625139 231 215 178 0.53474228699871218 44 2969 80 3948
10375 0.47977946074359951 0.079784624014639496 2.8092943078888983 231 215 178 1.8911844524764088 45 3736 80 3949
10376 0.2861267197690478 -0.4928938308173299 3.0784989083985499 73 46 31 1.3018425522565507 25 2904 32 695 45 2370 86 1649 100 3516 39 3242 57 3087 80 3753 22 2616
10377 -0.41776416411407752 0.27424253243069413 2.1842180653162449 39 30 13 1.1647320912512382 88 3062 11 3364 76 3803 45 3623 100 3691 68 3287 44 2872 92 2800 86 3180 39 3447 80 3839 28 3107
10378 0.13593930726885556 -0.25767549491771424 3.066216334228177 223 208 172 0.6598382811943535 78 2909 54 3051 43 3029 88 2668 32 3116 11 3051 76 3473 25 3471 100 3485 45 3521 86 3018 80 3646 28 2992 57 2984
10379 0.24654398939325908 -0.29732024980898947 3.0664669643377698 211 195 160 0.35080036962172367 45 2836 100 2450 39 2365
10381 -0.18311506507298933 0.74309335143645827 1.8796416864180765 0 0 0 0.92744758266085059 86 3282 100 3793
10382 0.76095531348463274 0.71005191502702281 2.722354654606435 105 71 52 1.1110288171350777 40 3360 94 3482 87 3431 7 3208 55 3271 46 3534 17 2771 41 2578 95 2057 97 1936 51 3293 30 2218 30 2772 90 3318 98 3418 83 3452 91 3230 9 3920 29 1913 81 438 2 396 77 596 48 465 49 3454
10383 -0.74566001141016092 1.2067372350168331 2.5230868926886965 112 78 63 0.28269503285549075 40 1452 94 1558 87 1511 24 450 7 1512 55 2282 46 2413 64 2185 41 2149 17 2236 51 1536 36 1454 30 1595 98 1766 83 1769 91 853 9 915 29 2093 33 1427 2 1308 48 1419 81 1471
10400 -0.5630402162568493 0.24531728129176708 1.8588060029938573 238 170 40 0.29791681367992617 100 52 39 23 28 20 31 914
10401 -0.6769707828962962 0.063777828591806765 1.8508960483168508 255 211 50 0.27461137973038996 45 116 39 34 57 1030
10402 -1.0840148769482683 0.60492119447573545 2.2006443465686747 112 118 143 0.74789616181835794 100 1138 39 35
10403 0.052920052925235099 0.10451422452942231 1.8123027101195162 71 71 80 0.25187259355212066 100 1137 39 80 80 1131 31 97
10404 0.052920052925235099 0.10451422452942231 1.8123027101195162 71 71 80 0.25187259355212066 100 1136 39 81 80 1130 31 96
10405 -0.65247140198011289 0.46329825831037602 2.1790172497745814 224 182 54 0.66048835253670135 100 1178 39 93 28 56 31 94 57 158
10406 -1.0427957689009246 0.15456868624943296 2.1435310000489483 202 199 216 0.4066766429611382 100 211 39 105 80 316 28 41 57 1080 66 288
10407 -1.0426755270517893 0.15472245247035743 2.142890634732328 202 199 216 0.24699570720830444 100 210 39 106 80 317 66 289
10408 -1.0785343525634139 0.171873903127053 2.1694721804477792 202 195 210 0.13883841196278357 100 223 39 110 28 43 31 63 57 1082
10409 -0.5875541543664532 0.39663443351401872 2.1773933978710502 152 105 21 0.48941770945547919 45 1845 39 122 80 273 28 1053 86 1698 31 130
10410 -0.72281405255564157 -0.0068169535849976204 2.0355768889871064 189 194 213 0.075722777928025703 100 1248 39 147 57 134
10411 -1.0612844943143356 0.21136812401253263 2.2321147507084156 255 220 56 0.36461010530426657 100 254 39 148
10412 -0.80430683448761631 0.17509017504252064 2.2174476485131027 192 195 214 0.080030822622814649 100 283 39 180 80 385 57 204
10413 -0.8834069017004017 0.20796733419063454 2.2613415120756661 180 187 209 0.29975441300172595 100 1290 39 187 80 1327 31 150 28 91
10414 -0.8397688260246079 0.18397665574960745 2.2555542018522763 190 195 215 0.20015978884351698 100 1297 39 195 80 1330 28 100 31 163 57 1138 22 928
10415 0.61405104974570679 0.13151095539117175 1.8562156361820787 174 91 13 0.26298812025684093 45 1082 39 198 80 1153
10416 -0.76332226297326544 0.17747244858229422 2.273756964380226 177 177 193 0.1460072642452008 100 327 39 226 80 1340 57 245
10417 0.009450007951022979 -0.24578258857710231 1.8617141861298443 60 43 21 0.16999046549572613 100 280 39 237 80 259
10418 0.73286085241817689 0.092356862651919974 1.8615431601763015 255 234 60 0.28357443252807329 100 169 39 239 80 158 28 1192 31 307 57 229
10419 -0.06017611209395201 -0.29764432512489891 1.8659405521298014 255 235 63 0.24632465354951644 86 1184 39 247 28 1123 57 181
10420 -0.43681525787459669 0.15857482796025774 2.2444052830642218 181 135 38 0.43449465993904529 86 1100 39 260 80 427 100 1320
10421 -0.64053369431439244 0.031301817762681865 2.3393709849681747 179 177 186 0.35709717371366068 86 207 39 330 28 225 31 276 57 357 72 336 22 298
10422 -0.084777705992646335 -0.3219198530081081 1.983741644135764 117 129 158 0.61031351739447859 45 1338 39 342 28 268
10423 -0.29495619471912693 -0.16648088161746336 2.1669148488816279 139 150 180 0.19642007346343729 100 1393 39 375 80 1395
10427 -1.1498743716310553 0.10462574399534848 2.6522397508619435 18 17 19 2.174082497734398 25 961 39 429
10428 0.20196956321405513 -0.5227193676566817 1.8682384036114634 157 125 34 0.46200629868381898 100 2041 39 432 80 2118
10429 0.0054426753748700318 -0.24660403083484556 2.10265654643589 227 164 43 0.69369550441709671 100 1410 39 437 80 1390 66 352 72 296 22 279 57 1249
10430 -0.61549700757197301 0.081875768363261478 2.5012397017348906 220 157 37 0.38687510372547279 100 564 39 447 57 430 66 475
10431 -0.15635407706489543 -0.059057673658585851 2.2920515569130493 253 179 41 0.35579125383787868 100 1429 39 464 80 1433
10433 -0.21733511000851752 -0.089200463165880289 2.3230583225538011 255 225 58 0.58128314702422224 100 1445 39 488 57 427
10436 0.034522819069837257 -0.21922073082419166 2.2052864808060724 224 164 42 0.50504808627317666 100 563 39 514 28 477 72 1909 22 325 61 1740
10438 -1.0539447032719296 0.18013640341504492 2.8931204136679827 192 174 134 0.14563897972907852 86 283 100 747 39 568 80 796
10439 0.68819158324016749 -0.33547251195057659 2.0284911508987782 203 128 25 0.030420610623248502 100 549 39 595
10440 -1.1251266052740501 0.12098358714787598 2.9073954969781299 196 183 147 0.047080249734817697 100 768 39 598
10441 -1.159059968700642 0.048658419268248314 2.9077094494698739 97 67 55 0.19069901130068975 100 805 39 614 80 1806 57 1451
10443 -0.31887681571949411 -0.079161410852769953 2.6151254802831239 157 163 180 0.13812468059165015 86 488 100 758 39 655
10444 -1.0301728722073378 0.014396091660112782 2.9343026996805412 89 56 40 0.32114496973108669 100 1687 39 673 28 531 31 1263 57 2042
10445 -0.083559231654909832 0.14314755595605583 2.7342741088638247 225 162 39 0.19759531254836882 100 746 39 679 80 1666
10447 0.91207902788408834 0.62205667609715432 2.7875512329648497 206 186 148 0.37330938013848564 86 696 39 692 28 773 31 750 57 786 84 815
10448 -0.18512436019759965 0.0091848445466502886 2.7593338437116626 14 15 18 2.0002111769744726 100 813 39 730 61 1407
10449 -0.53804665280086328 0.67126759646772571 3.3763846227552277 143 139 154 1.4707027729877713 24 623 39 738
10450 -0.12076913975196393 -0.0046961226186488115 2.7881006865254707 18 13 12 1.5537499390112093 45 1531 39 775 28 1556
10454 -0.24384759091873243 -0.032813870188374582 2.8306482952736483 139 131 139 0.45879510046073479 100 868 61 586
10455 -0.25413265242306188 -0.040346773385210331 2.906319730346659 148 146 162 0.51205226902645251 100 1731 39 828 80 2519
10456 -0.30275584157206825 -0.051719344257317411 2.9736157543950856 21 20 21 0.30285165870966263 86 647 39 853 31 738
10457 -0.45278453172251332 -0.17368155181627651 2.9692152177602962 43 25 18 0.44149636003845211 100 966 39 863 28 782
10459 0.17526864401632197 -0.42268546842523264 3.0424248860141314 60 38 30 0.58328935013800087 86 864 39 1000 57 952
10460 0.22348629175216531 -0.45183635526869242 3.1209571145680362 102 64 47 1.0956862187119898 100 1080 39 1017 57 2167 66 2835 72 2463 96 2320 6 2628 73 2725 35 2970
10461 0.45949765197937675 -0.47329193967979682 3.1091406914924078 145 96 68 0.40520253418636532 86 935 39 1031
10462 0.59395467008554104 -0.43291415007297751 3.1208744663096444 198 175 137 0.32046393992985078 100 1085 39 1035 28 978 31 889 57 1741 80 1945
10463 -0.6418552503021282 0.33639757772265438 1.7556633549329763 219 165 41 0.86832874868726873 100 7 39 1060 80 22
10464 -1.0835800068681705 0.1963846155222036 1.80412126274094 255 215 50 0.25626659690259157 45 36 39 1061 47 966
10465 -1.0835800068681705 0.1963846155222036 1.80412126274094 255 215 50 0.25626659690259157 45 37 39 1062 47 965
10466 0.4978543126039684 0.099947813097837249 1.4881476523498325 254 234 73 0.21044824224317224 86 1716 39 1069 80 1071 100 1824 28 1012
10467 0.27670425682723265 -0.030910715684416459 1.6041802399445069 103 114 139 0.45608336028686691 100 1113 39 1090 80 1079 28 50
10468 0.084588204023767599 0.13361171493081175 1.7362093248854715 231 186 55 0.2988014207258497 45 57 39 1096 80 1097 28 1028 57 1036
10469 -1.0623644781939001 0.26328566970287826 2.1271001742175306 255 231 58 0.27310111397965769 100 161 39 1115 28 1013
10470 -0.70245106089718934 0.021805607295606322 1.9719869735992299 144 141 150 0.1965483644474052 100 1910 39 1138 80 1210 28 1703 31 930 57 99
10471 -1.110578509486192 0.16921747473952348 2.1430752501783403 203 203 223 0.20607699127838255 100 1924 39 1139 28 1016 57 1070 80 1266 66 283 72 179 22 122
10472 -1.050770528188584 0.29673335578483107 2.276580091100171 223 173 44 0.20226184996331717 100 1266 39 1163 28 1714
10473 -1.0474503745385599 0.31780644480719705 2.3015130995271789 201 131 23 0.40380792914401259 100 1272 39 1166 28 1045
10474 0.60322348557091332 0.17289372562893232 1.8141519792055421 255 155 24 0.07689256740827663 100 1142 39 1169 80 1129 31 1011
10475 0.60340647725062957 0.17178195330280543 1.8135930110453313 255 155 24 0.04230561359486177 100 1143 39 1170 31 1012
10476 -0.46377636085903939 0.25267477454452142 2.1232766925523889 147 114 28 1.8917463498701566 87 1850 39 1172
10477 -0.43845294735590379 0.24396071318524634 2.1461978217658397 17 14 10 0.53352184916075396 100 1238 39 1178 28 1074 31 173 57 1116
10478 -0.51187386742554775 0.29137075564014087 2.2037879200830899 252 204 55 0.28426061586859347 100 1252 39 1184 28 118
10479 0.56076277725187029 0.14350552425711691 1.8543522312634801 255 222 55 0.4722284281026895 100 1162 39 1185 80 138 28 1135 31 1654 57 1103 66 161 72 137
10480 0.11978685240509709 -0.31280313376540092 1.769379601688464 140 140 158 0.58214662426368113 100 1251 39 1207 80 1187 28 1111 56 949
10481 0.63071122338118724 0.34833583730649764 1.9881968119940097 255 236 61 2.4498986685022119 100 1172 28 1165
10482 -0.78269875575085168 0.18434270468835459 2.2795758272781619 105 104 116 0.29051712274561908 100 1987 39 1210 80 2817 28 1080 31 984 57 1875
10483 0.72139956211821887 0.097605163399236999 1.8602508136721789 203 115 18 0.35176790341876574 100 1196 39 1222 31 303 57 224
10484 -0.65205582270762319 0.10833545561600598 2.2481312021891102 240 194 50 0.020823049114666647 100 1994 39 1230 80 2139
10485 -0.73094122982992493 0.097668551465144623 2.3401900375443159 62 59 66 0.75211384022677163 100 2599 39 1279 80 2848 28 1125 31 245
10486 -0.73094122982992493 0.097668551465144623 2.3401900375443159 62 59 66 0.75211384022677163 100 2598 39 1280 80 2847 28 1126 31 246
10487 -0.068367947191502215 -0.26737566557764164 1.9595968705530358 249 198 73 0.14404575757303803 100 1334 39 1284 28 236 31 253
10488 -0.069773522498727064 -0.27780187200990786 1.9695772886147025 116 111 108 0.10281830827655811 100 1346 39 1294 80 377 28 1151 31 1044
10489 -0.30300343655704554 -0.13057964704717354 2.1697306399492962 123 114 105 0.18728793975276292 100 1380 39 1320 28 264
10490 0.0075303299386680483 -0.2425913294341015 2.0171601782845343 148 91 14 0.19164054550619403 86 1865 100 436 39 1321 80 406 28 1828 31 1674 57 1186
10491 -1.1281055534875097 0.14803765103013794 2.609532216025106 107 101 114 1.8288086055635207 76 2273 39 1333 25 2225
10493 -0.30095167359051334 -0.18432184158047293 2.1799430200013257 184 194 225 0.17704858525984349 100 1407 39 1343 80 1406
10494 0.028123502740424855 -0.22949718862280946 2.0815457476082817 137 78 10 0.18484401942858145 100 468 39 1362 80 455 28 1867 86 1885 57 1234 66 340
10495 0.048924188034419697 -0.21786645853975278 2.1435316175963823 157 83 10 0.15161115819754378 86 1907 100 510 39 1398 80 501 57 1280 22 1408
10496 -0.34329189637942248 -0.59316876641414085 2.082658349004983 35 24 15 2.8329991673035906 100 2162 39 1444
10497 -0.31708597216280499 -0.061910657051671106 2.4238765293433793 29 34 44 0.6946245359455322 100 1485 39 1449 80 613 28 1322 31 1179 57 473 86 1275 72 435
10499 -0.18291608207109419 -0.064426704757372 2.4705626761203887 207 170 123 0.47740357059878824 86 463 39 1506 28 1395 31 1788 57 1396 72 1946 66 2153 22 1474 14 889 61 1791 6 1677 52 996 69 278
10500 -1.0609991410515589 0.099577654081473094 2.8932887483767096 213 196 154 0.41495394949619652 100 1621 39 1538 80 836
10501 0.38052879818886387 -0.56993768514784138 2.0165134397710607 243 179 45 0.93883222984024928 100 1523 39 1571 80 543 28 1492 31 1267 22 978 14 809 61 1680
10503 -0.16014855327578836 -0.30088908483756832 2.4242923265139442 182 162 123 0.86133509035459688 86 542 39 1595
10505 -0.2697768932814093 -0.094142706190598613 2.6170780505765081 163 169 186 0.038568372878523514 100 770 39 1602 28 1472
10506 -0.048542013547441316 0.12689211707139558 2.7316655084031845 99 99 111 0.37510301686195119 100 2223 39 1612 80 2934
10507 -0.2328756705823159 -0.10401772456188671 2.6255183281555921 15 14 15 0.23842419179110261 86 1399 39 1614 28 1490
10508 0.77084098748655061 -0.8021404736436617 1.7888949362086022 220 201 161 0.56540638966438506 100 1527 39 1622
10509 -0.96655764652826859 -0.051112818206712346 2.9232331526878435 106 74 61 0.15917858970061946 86 1286 100 1709 39 1628 80 1850
10510 -0.82497097051209545 0.00054984720610692667 2.9163463427017384 109 71 51 0.32550036762503881 100 853 39 1630 80 890 28 1958 57 1515
10512 0.97244256538639251 0.59237401898807929 2.7868129321264608 217 197 158 0.28020157368512327 86 2019 39 1641 28 1593
10513 -0.2688021110166765 -0.0040339920096590653 2.7573216162974279 174 174 191 1.5290760657549358 100 2281 57 1518
10515 -0.25883715446979494 -0.033043071514705188 2.8010364898193196 136 131 145 2.1678245178117481 25 1418 39 1677 76 1462
10516 0.57577622058642464 -0.5505681177780869 2.116030578935602 255 232 59 0.060679972042503146 100 1604 39 1681
10517 0.022325621444280099 0.16554903729208667 2.9227766418768804 201 173 127 0.50480925648405817 100 839 39 1714 28 765 31 731
10518 -0.31515734007600715 -0.027591545969556174 2.8914316908149051 166 167 185 1.0414177428886127 100 2354 39 1717 80 2961 31 704 57 2088 72 2416 22 1578
10519 -0.17087062750209089 -0.063654849688405291 2.8150440759480913 26 26 26 0.93545890299478629 25 2058 39 1722 76 2083
10520 0.4061778151570693 0.24790967644085779 2.881097833123325 94 83 65 0.10886634772105608 100 1652 39 1726 80 1753
10521 0.40632951226715808 0.25049012994655323 2.8834307503253336 94 83 65 0.17439581681414967 100 1651 39 1727 80 1752 31 767
10522 0.14117200230982965 0.12152446459143383 2.9310570472888604 215 187 139 0.18962947036518873 100 1711 39 1745 31 1490 57 1648
10523 -0.31058352256210359 -0.071746968520778054 2.9833526044439291 24 21 22 0.097875861915758852 100 1754 39 1758 28 1587
10524 -0.42496936315890249 -0.16062852578530598 2.9587525966403407 149 99 70 0.39518906713311863 45 1654 39 1761 28 1582 31 727 57 864
10525 -0.2351633263913217 -0.10355905212662796 2.9774185231973371 30 27 25 0.2484350157773024 100 1758 39 1775 80 1883 28 1597 31 1485 57 1666
10526 0.68348657805998314 -0.15020206913536222 2.6587891027367312 221 206 166 0.72515872138454407 15 2154 39 1785
10527 0.46667618024393848 -0.31374608455922059 3.0918187482782487 227 208 167 0.10478749513007 100 1788 39 1826 80 1929 28 1659 31 1560 57 1733
10528 0.32588404596272424 -0.43645717363323272 3.0720006743293173 140 91 63 0.13847950499310893 100 1794 39 1831 28 1660
10529 0.45290782433576859 -0.47884049929065575 3.1026501414254417 145 96 67 0.30098489001846368 100 1803 39 1836 57 1739
10530 -0.60361436309662075 0.32663474120774805 1.7635696309396309 236 197 56 0.17426769457247382 100 1830 39 1846 28 995
10531 -0.58755511652098635 0.34027625790060839 1.7685602245476579 255 233 63 0.3120303554359789 100 1104 39 1847 28 1681
10532 -1.0472457733500649 0.19277010608146233 1.9558498061152894 255 210 55 0.24247082251681712 100 1874 39 1850 80 2006 28 1684 31 1575 57 1769 66 2017 96 1328
10533 0.55363816538864652 0.13567697756639521 1.6398843669619116 253 140 21 0.22123278066824503 100 1836 39 1860 80 1961 28 1058
10534 -0.089746076835537092 0.34019411442704489 1.9724574681091465 166 149 55 0.19145382125009336 100 2504 39 1883 28 1725
10535 0.56071711033558214 0.16473500588165449 1.7370918912938857 255 243 61 0.34541350691887346 86 1807 100 1859 39 1889 28 1756 31 1627 57 1799 72 1786 66 2474 22 1335 14 1226 61 1634 12 2354 6 1528 52 1346
10536 0.32497598090515867 -0.12232993175215856 1.6621519420972095 127 135 156 0.19562961422292358 86 1798 39 1894
10537 -0.082118136500442723 0.31734024795112675 1.9795124608793677 134 103 24 0.15219883732520723 100 1150 39 1895 80 1164 28 1060
10538 -0.71799824306248039 -0.0044795552059379755 1.9800250100867083 212 210 229 0.38119736340927762 100 1917 39 1899 31 1592 57 2228
10539 -0.80237368871778925 0.038371306685700497 2.0473616303581901 203 202 225 0.32529847130068906 100 1928 39 1906 28 1033 31 936 57 1818 66 2045
10540 -0.70304061835651632 -0.017303999490133497 2.0088528043033582 204 209 232 0.40271671147293148 100 1932 39 1915 28 63 31 946 57 1817 22 864
10541 0.65270641156931675 0.13791750039044265 1.7590156090855711 255 248 63 0.27186675245804121 86 1215 100 1872 39 1918 80 1982 31 1643 72 1803 66 1999 22 1352
10542 0.65231920579648994 0.13878194033424324 1.7597760148439934 255 248 63 0.20728914674657584 100 1873 39 1919 80 1983
10543 -0.74027361135344183 0.0012216693190443386 2.0377742400929506 183 183 201 0.21222012169792878 100 1936 39 1920 28 1039
10544 0.67546433922052418 0.12990111175103244 1.7558433321339151 253 155 27 0.43073774070686544 45 1817 86 1226 39 1921 80 2705 28 1117
10545 0.60149721760752517 0.16574099674689535 1.7928043177073776 255 244 62 0.40793563601250887 100 1879 39 1922 80 1986 31 1645 57 1823 66 2007 72 1812 22 1359 14 1238 12 1090
10546 -1.0509947950142189 0.33608847426559524 2.3358204075262399 242 183 45 0.23677850419526644 100 1955 39 1934 28 1722
10547 0.22345557142590267 -0.30627682219602659 1.6940132129339864 190 201 230 0.3869779023928161 100 1203 39 1942 28 1761
10548 -0.85403417940959436 0.19265551987766211 2.2351992954744602 194 194 212 0.3780655319334138 100 1962 39 1944 80 2110 28 1061 31 963 57 1850 66 2085 22 1377 14 779 12 1971 71 1887 10 1959
10549 -0.81825164124839433 0.18644242872874245 2.2777178762985604 180 186 208 0.23696511982203253 100 1982 39 1966 80 2132 57 1870 72 1876
10550 -0.53762425324876439 0.14259144305559157 2.2609330851328844 255 185 38 0.47478282236504404 45 1207 39 1993 80 1354
10551 -0.085129548579310127 -0.30061369553122924 1.9778448510672826 229 221 235 0.59814426359756168 100 2014 39 2030 80 2116 28 2207 57 1883 31 1658
10555 0.20012034709559268 -0.53684525303203856 1.8415829769263905 197 151 41 0.36759893794839654 100 2614 39 2077 80 2804
10556 0.043285661080496363 -0.19060077422988045 2.1264917416821785 156 96 15 0.37828771770263003 100 2046 39 2090 80 1389
10558 -1.1394955104752449 0.10419982852311251 2.6619262366208676 141 138 124 1.0351947385905653 25 2257 39 2092 76 2302
10560 -1.2067317818154166 0.21770495699955006 2.7733033805988425 17 16 17 0.12935381675884827 100 2119 39 2105 28 1819
10561 -1.1889855063102399 0.21718438608100629 2.8001532368227946 27 26 27 0.19220687743198439 100 2137 39 2122 31 1718 57 1979 66 2226 72 1967
10562 -1.1740612303375029 0.22051551669858852 2.81885472949799 25 25 27 0.3107547027418997 100 2148 39 2129 14 1364
10563 -1.1490508922981433 0.21686191523555387 2.8399696918376032 26 25 26 0.10817634553781671 86 1785 39 2141
10564 -1.0627725915268198 0.069958758745767555 2.7109954417482776 26 25 26 1.8556169684162358 76 2296 39 2142
10565 -1.1323682252324403 0.21587320144453076 2.8526829185425955 22 21 23 0.13739964924748851 39 2149 28 1868 31 1746 86 1795
10566 -1.1331441414839662 0.21768187656260785 2.8548084356379393 22 21 23 0.20895858561514805 86 1796 39 2150 80 2351 28 1869 57 2000
10567 -1.2969406237492 0.16597599889746795 2.8958760938925012 214 202 166 0.36705802026355466 86 1784 39 2157 80 2392 28 1260 31 1156 57 550
10568 -1.0502609015874051 0.19431177932491475 2.8795843094514582 18 18 19 0.23852880783506283 100 2202 39 2170 80 2379
10569 -0.23418813768155111 -0.11746835413811806 2.4419995533352359 189 191 211 0.48222469378806282 100 2155 39 2176 80 2251 28 1387 31 1226 57 1385 72 1317 66 1391 22 1044 14 310
10570 -0.65858309571402407 -0.038322618602412553 2.6432492997149475 2 2 3 0.2681202368882652 100 2204 31 1212
10571 -0.24897184808697509 -0.061598346041172813 2.6014745860716024 172 152 117 0.13080005455753718 100 2220 39 2215 80 2323 28 1962
10572 -0.26402114444413616 0.095288109895234396 2.7195981018944577 172 152 117 2.0713182344376073 100 2221 22 1524 57 2035
10573 -0.45572204152318496 0.81027804681579707 3.3417623274672095 194 172 131 1.6095883802338693 24 2393 39 2223
10575 -0.79742691962971268 0.070216435328081028 2.9337403805380085 212 198 158 0.20355357091777149 86 1889 39 2229
10577 -0.44612895475556347 -0.019812406298884304 2.7794937543900682 155 149 158 0.10851750793104877 100 2284 39 2232 31 1831
10578 1.1248186815253245 0.59170534604981462 2.7758191745077294 55 42 44 0.34712533673330676 100 2124 39 2250 80 2248
10579 1.1248186815253245 0.59170534604981462 2.7758191745077294 55 42 44 0.34712533673330676 100 2125 39 2251 80 2249
10580 -0.57995236117081561 0.047437966312621857 2.9371062754753132 29 21 15 0.055662106438308968 100 2327 39 2259 80 2487
10581 -0.14923389463310255 -0.02489889790507039 2.7892054436892568 139 144 162 0.67335790979482257 39 2273 22 1565
10583 0.079034082160782143 0.14148290665871194 2.9438683715380058 241 214 163 0.040052591474378244 39 2297 80 2474
10584 0.30368713127023284 -0.22320920936419703 2.5883238370577843 239 215 170 1.682638487895348 100 2338 39 2299
10585 -0.15338899443777854 -0.20765295823328889 2.7602480167180712 110 114 133 0.33413450954305457 100 1735 39 2302
10586 -0.25641694115468233 -0.091313365845973896 2.982427587080668 16 15 16 0.22828735108354711 100 2402 39 2321 80 2572 28 2071 31 1907 57 2425 80 2971
10589 0.28108143027361271 -0.3081205584856892 3.0743858492847256 213 195 155 0.37888429950669672 100 2455 39 2367 28 2371 86 2397
10590 0.52553395759398147 -0.4646810113459201 3.1612837158477189 110 74 53 0.44366220805856232 100 2885 39 2387 28 2123
10591 -1.0213337911600151 0.12155266175591177 1.8328252517451744 255 231 73 0.53120944368463097 100 2482 39 2393 80 3052 28 1679
10592 -1.1208388313479927 0.14420208222914213 1.8642412944061793 254 196 53 0.85200037191099875 100 2484 39 2394 57 1760 72 2188
10593 -1.1167893668002964 0.15205653939371219 1.9009832605238342 250 196 52 0.89492509316430313 45 2408 39 2395 28 996 57 1763 22 1272 12 2392
10594 0.016457666736543142 0.15629907127308376 1.7760272118386566 0 0 0 0.53504707620176062 100 2909 39 2404 28 2453
10595 0.44267260599736857 0.15052379461427895 1.7476211950390923 255 254 64 0.24188859777196126 86 2143 39 2416 28 2175
10596 -1.1222035628469011 0.2107535109845661 2.220150053518573 170 153 152 1.1606452673040468 100 2961 39 2421 80 3151 28 1706 31 1600
10597 0.22559247827821052 -0.27013256800227414 1.6656505904645309 188 199 230 0.11596061482350356 86 2153 39 2423 31 2008
10598 -0.78451643298275209 0.063718480270437514 2.2789664945983681 255 222 62 0.87850383675043919 100 2580 39 2448 28 2181 31 2031 57 2266
10599 -1.1556102525079439 0.30699354182814254 2.5340398039969005 194 157 47 0.34513308641087392 100 3020 39 2452 80 3204
10600 -0.74527261097591257 0.072549778195506259 2.3010706572511239 255 226 59 0.18185274506754051 100 2590 39 2453 28 2183 31 2036
10601 -1.0142091779755942 0.16346492639059865 2.4588944062308404 255 200 52 0.55239933021889753 100 3023 39 2460 80 2861 28 2483 31 1652 57 1222
10602 -0.31819674089246097 -0.15210528574215573 2.1792700082918435 226 223 243 0.2230276510361133 100 2616 39 2469 28 1816
10603 -0.0045729959884339422 -0.24889360696266499 2.0880151604177435 225 163 41 0.17983773214078214 100 2619 39 2477 80 2833
10604 0.73801495221219582 0.34325968913810873 2.258172723494301 255 229 62 0.52866730180456512 86 2232 39 2481
10605 0.65276461411122566 -0.18980456704076126 1.9601606069098851 197 136 43 0.078721927819136797 100 2581 39 2485 80 2797
10606 -0.14181626769345665 -0.065921681851101324 2.285757262462321 254 180 42 0.24341168412346054 100 2633 39 2489 28 1883 31 2096
10607 -0.14478927037877842 -0.056319074269776587 2.2934943579162765 254 180 42 0.40157487359392896 100 2634 39 2490 80 3203 66 2973 72 2585 61 2171 12 2770 71 2992 10 2764
10608 -0.10615105402414271 -0.075275011620254795 2.2880748793695602 99 99 111 0.19271033645261207 100 3041 39 2492 80 3206 57 2585 71 2988 66 3257
10609 -1.1330863329120324 0.24622772538692048 2.8188545417402615 16 15 14 0.30483961180943236 100 3071 39 2496 31 2090 28 1844
10610 0.63049517397104993 -0.2537261661622397 1.9782089430133163 196 135 44 0.098430503093314428 100 2605 39 2497 80 2808
10611 -1.1171465046154707 0.25287160277852555 2.8399103018142604 13 12 12 0.2805815963604929 100 2666 39 2499 57 2330
10612 0.27477453059684764 -0.56736624151424231 1.8968654799281437 186 144 38 0.4819021607055114 100 3047 39 2502 80 2829 28 1919 31 1735 57 1924
10613 -0.2210472970075445 -0.071057309694725013 2.3879927243537642 26 25 27 0.41721707938795244 100 2648 39 2507 80 3226 28 1333 45 558 57 2314 66 2986 72 2602 22 1810 61 2189
10614 -1.335152460175119 0.11203700810574253 2.8995588773212955 149 102 77 0.4243855412796827 100 2706 39 2524 80 3323
10615 0.39792486624048506 -0.60662775947021397 1.8939595577417363 255 200 49 0.58314138399102899 100 2645 39 2525 80 3182 28 2275 31 2117 57 2569 66 3215
10616 -0.17935851009996578 -0.057818846826439368 2.6158282524107439 38 26 18 0.21276404823625472 100 2710 39 2571 57 2379
10617 0.21752371443980789 0.3291413793614627 2.8643543124682793 227 206 160 0.25407761171052329 100 2227 39 2590 31 2206
10619 -0.68603400941215942 -0.044130886462710683 2.9548290908063022 123 82 56 0.23975832823112272 100 2744 39 2601 80 2533
10620 -0.75401018956914956 -0.1237595987576515 2.9428442625799067 109 74 60 0.19867055340025477 100 3148 39 2606 80 3366
10621 0.41718424365558049 0.29760786553383284 2.8834395237761923 125 114 98 0.14947217619633704 100 2718 39 2607 80 2393
10622 -0.61221767131088822 -0.11637788422152168 3.1456279071307249 219 188 147 0.67636619578215018 76 2324 28 2069
10623 -0.44063819714299152 -0.25612879720233822 3.0413254638988767 217 188 148 0.80027986098445791 45 1691 39 2629
10624 0.16282522949560929 -0.43355035247600571 3.0632367170313497 83 53 41 0.64377090947283533 100 2866 39 2669 80 3007 31 1548 57 1731 72 1691
10625 1.2357163581089998 8.690157905596088 12.156254800001509 230 214 177 1.8603992297152359 86 2348 39 2679
10626 0.21569210801892363 -0.48863438015231336 3.094066655429188 217 189 149 1.2145365876118137 100 2876 39 2685 31 2237
10627 0.74203312157943724 -0.60824867594657417 3.2122041342848218 223 188 148 1.3633408848102013 100 2892 39 2705 80 3392 57 2769 66 3594 71 3281 10 3066
10628 -1.0155309105442241 0.46235136104298341 1.7035040420020606 0 0 0 0.36479777799829882 86 2437 100 2471 39 2707 28 2417
10629 -1.045965233346289 0.44137428529445744 1.7125461649764355 255 232 74 0.4657139344382587 45 3144 100 2894 39 2708 80 3393
10631 0.52606785495260766 0.12297790884282746 1.4852637299807043 255 245 76 1.4014312380361102 86 2480 39 2726 28 2143 80 2688 31 2278 72 3189 66 3643 22 2581 14 2422 84 1344 63 2548
10632 -0.73985904591523333 0.16696745142992556 1.7981790109949902 255 249 64 0.16764294989813591 100 3207 39 2731 80 3408
10634 0.33296442438421275 0.037549742603356855 1.5781728993016044 56 59 67 0.40176564380251495 100 2902 39 2738 80 2697
10635 -0.70176654860175802 0.065075317013419814 1.8492152565655833 255 210 49 0.44004090446394373 100 2913 39 2741 80 3059 28 2139 31 1975 57 2204 14 1149 22 1281
10636 -1.1188334234180621 0.206066753245148 2.0390520909779424 255 229 61 0.56476654717567576 100 2927 39 2743 80 3432 28 2443 86 2457 31 2277 57 2507 72 2505 12 2713
10637 -0.67208370295352893 0.074804278069616467 1.9251621980508167 255 244 61 0.39499897886413471 86 2465 100 2928 39 2747 80 2738 28 2446 31 2282 57 2508 72 2502 22 2004 14 1908
10639 0.53831933567700641 0.18598492879538622 1.7486256176235866 195 129 44 0.40009557508751287 86 2147 100 2489 39 2757 28 2472 31 2019 57 2226
10640 0.50132563339700165 0.13171041614133946 1.824414788902265 255 252 65 1.0366124669018071 86 2729 100 2923 39 2762 80 2712 28 2725 31 2569 57 2518 66 2503 72 2506 22 2018 14 1923 61 2110 12 1896
10641 -0.60431606783479608 0.2387455793706808 2.2122821086767588 255 202 49 0.61830700998870081 86 2706 39 2767 28 2469
10642 -0.67002235235466023 0.080291558309143793 2.1456739462117516 255 215 57 0.57045222693552655 100 3255 39 2768 28 2171 31 2016 57 2524
10643 -0.64703779295127839 0.089728069945477315 2.2090997016242264 255 222 57 0.61005681480650664 100 3261 39 2778 80 3462 57 2534 31 2028 66 3235 72 2885 22 2030 14 1644 61 2429
10644 -0.22346624758279454 -0.095293221095140462 2.1258380256500198 149 109 24 0.24242364790909679 100 2585 39 2807 80 2136
10645 -0.63755413452435872 0.0090330915337078176 2.3675980115346498 206 209 232 0.72994039349365947 100 3029 39 2820 80 3483 28 2493 31 2577 57 2831 66 3258 72 2903 12 3094
10646 -0.66418216298752519 0.019546169191235724 2.4045560900742187 164 158 176 0.5291035092690739 100 3036 39 2826 28 2210 31 2341
10647 -0.28430476022778306 -0.18144834221940914 2.1864616000636232 202 205 228 0.14453913852344799 100 3026 39 2828 80 3477
10648 -0.28430476022778306 -0.18144834221940914 2.1864616000636232 202 205 228 0.14453913852344799 100 3027 39 2829 80 3476
10649 0.69453953172793093 0.33634747452944164 2.2361586682373131 255 234 69 0.54419456908267883 86 2588 39 2830
10650 -0.62235794833636315 0.025756176036579925 2.4178552134759732 187 114 35 1.1366683238904107 100 3039 39 2831 80 3492 57 2836
10651 -1.0990563361400214 0.11120445190426337 2.6318347789125243 139 133 143 1.1978491038995414 76 3226 39 2837 25 3220
10653 0.008039442013600899 -0.21984985400956369 2.186720310097062 109 102 114 0.45029389185358976 100 3048 39 2856 80 3480 57 2579 66 3243 72 2898 61 2434 12 3075 71 2973 96 2213
10654 -1.0764833960436841 0.17935258043455932 2.8910119459232799 59 53 43 0.11910132751713147 86 2518 39 2875 28 2541
10655 0.37204871709623744 -0.56594492004625341 2.0067431706478276 255 255 66 0.17594408094950745 100 3072 39 2883 80 3205
10656 0.9210027350053237 0.51245469508660191 2.8194677016976599 255 229 176 0.3215966276357054 86 2812 39 2920 28 2782 31 2633 57 2885 84 1707
10657 -0.14197870853901487 -0.14079887755673298 2.7033149056513395 28 28 29 0.22527107639624597 100 3133 39 2925 80 3332
10658 0.16447452269826945 0.1990343147933859 2.8857999921697237 255 230 175 0.26341355468158228 100 3346 39 2927 80 3328 28 2762 31 2476 57 2709 72 2721 22 2142
10659 -0.46473086530934293 -0.012831842657862101 2.9669130571997435 31 27 23 0.15625523300800812 100 3144 39 2934 80 3358 57 2707
10660 -0.18424255432203684 -0.076734145847090859 2.9091758756684278 6 6 6 0.36101368071130829 100 3147 39 2943 80 3360
10661 -0.049471520958800232 0.00035451967026903057 2.9719547954500913 252 225 172 0.16033289598741263 86 2653 39 2946 28 2646 31 2494
10662 -0.6983908542736923 0.085949241221825554 1.8288061988816162 255 254 71 0.15651612451413752 86 2695 100 3218 39 2977 80 3419 28 2442 31 2276 57 2498 72 2492
10663 0.2471261190169963 -0.0092366747704746496 1.6094525138857001 0 0 0 0.61007380612522888 100 3206 39 2980 57 3029
10664 0.28932304535960207 -0.11379080920079876 1.6100722402411125 187 201 233 0.54793009887326305 100 2908 39 2985 80 3036
10666 0.22933443924763014 -0.29256684863866261 1.6812756965161813 12 13 14 0.30919059668007054 86 2966 100 3233 39 3004 80 3057
10667 0.58452617327584233 0.16655687571897523 1.8346590234212456 255 223 53 0.79327048945353684 86 2967 39 3007 80 3422 28 2730 57 2801
10668 -0.6969784026647905 0.14023593184560756 2.2636305424111374 75 49 6 1.2496982348331973 100 3546 39 3016 80 3787 57 2821 72 2890
10669 -0.32876875097100189 -0.08231141490647205 2.4178127008498049 27 27 30 0.5987665800412042 100 3295 39 3047 28 2963
10670 0.42078056560603383 -0.60007354414195657 1.8917881792475695 255 253 71 1.7433882309037021 100 3288 39 3051 80 3470
10671 0.053668591977750493 0.025842913958850654 2.5338359336459919 239 177 43 1.139497022511436 100 3311 39 3058 80 3518 57 2856 72 2926 22 2374 61 2806 12 3364 71 3240 10 2955 96 2369 6 2760
10672 -0.98453152836377034 0.053523591036320067 2.9064024361426366 107 72 56 0.93660537917548226 100 3345 39 3061 80 3340
10673 -1.0704196519841795 -0.0098844432025533974 2.9347431009803464 149 99 74 0.89059682318875688 100 3359 39 3067 80 3731 28 2743 31 2590 57 2862 66 3331 72 2942 22 2377 14 2268 61 2499 12 3145 71 3131 10 2874
10674 0.031584617676345551 0.24275679184643201 2.8659171150792027 253 222 167 0.46633038229743828 100 3333 39 3072 80 3534 57 2871 72 2694 66 3094 22 2398 14 2289 12 2922 71 2880 10 2683
10675 0.31348712841038645 0.23002115221672392 2.8798961241239294 248 223 177 0.15404302982186516 100 3343 39 3089 80 3537
10676 -0.094664384037126709 -0.02593672206230821 2.8466414105940627 30 28 22 0.77713638137671293 86 2774 57 2882
10677 0.22686639888794372 0.17969001267126739 2.8959629861598795 255 230 175 0.0722674524968729 100 3355 39 3096 28 2773 31 2616
10678 0.37837197371284831 0.21091033817644239 2.886607105390504 236 218 177 0.48809952665615713 100 3350 39 3100 80 3539 28 2780 31 2627 57 2893
10680 0.055794012942909525 0.10693584467001847 2.9397060222821878 254 226 171 0.23290870975340414 100 3374 39 3106 80 3554 28 2774 57 2894 72 2976 66 3371
10681 0.57309653272611394 0.13781024900816496 2.9111527481654713 255 231 177 0.06463925113327873 100 3378 39 3131 28 2831
10683 0.63774163698076747 0.11853958080733509 2.9205752432998855 255 229 175 0.16204914788942518 100 3385 39 3148 80 3555 28 2847 31 2677 57 2937
10684 -0.098111979775672042 -0.11782504443238737 3.0173739082541444 251 224 172 0.24114220998477631 100 3435 39 3161 80 3611 28 2805
10685 -0.055916202594476792 -0.19828136251750594 3.0469698681078645 245 224 175 0.28918657878864401 100 3463 39 3186 80 3632 28 2837 31 2664 57 2956
10686 -0.045369045798554435 -0.23676741168932675 3.0094022042568964 245 224 175 1.9560851344711316 100 3464 39 3187 80 3633 28 2838 71 3176
10687 0.87395102352339371 -0.026061295816312127 2.9743291482211185 255 234 181 0.20532562710131838 100 3438 39 3209 80 3596 28 2895 31 2728 57 2987
10688 0.14843425166643295 -0.40475774643284851 3.0478941863998195 152 101 72 0.52581478058623754 100 3504 39 3227 28 2888 86 2926 31 2715 57 2995 72 3083 22 2461 14 2317 61 2333
10689 0.5066585279561524 -0.24169153941332042 3.067299816847405 255 231 178 0.26805926482311782 100 3491 39 3229 80 3650 28 2899 31 2730
10690 0.41914127929218931 -0.28235502423181663 3.0792474797917575 249 227 175 0.5695484843135532 100 3498 39 3233 80 3654 28 2898 31 2729 86 3051 57 3004
10691 0.63571243437921454 -0.28194589378429197 3.0837976431705476 255 230 179 0.28128740749684961 100 3502 39 3238 80 3656
10692 0.47675029824210446 -0.4894580495319435 3.1229233124542835 152 100 70 0.56516723477759545 100 3518 39 3244 80 3665 28 3015 57 3090 66 3591 72 3184
10693 0.65790964961131837 -0.42220628666398602 3.1346507619171855 249 224 175 0.27291566254060479 100 3517 39 3245 80 3663 31 2750 57 3019
10695 -0.99260264898460382 0.1244854884467262 1.8336518227778122 255 242 66 0.39074705778699947 45 3555 39 3249 28 2914 31 2756 57 3027
10696 0.30305294711000924 0.02882023906663575 1.5703939462911904 0 0 0 1.3727785993371313 45 3552 100 3196 39 3251 80 3395 28 3030 31 2759 57 3028
10697 -0.65608736711342641 0.068245546357183412 1.8787307582229242 255 208 49 0.43161097660605902 100 3530 39 3253 28 2701 31 2545 57 3030
10698 0.31728001931281724 0.17948013443703129 1.7329155545641233 175 181 195 2.0703805954238472 39 3255 80 3759
10699 -1.020372926758969 0.17701778644975469 2.1385632643022281 13 14 15 0.38782059566316263 100 3240 39 3260 80 3447 28 2919
10700 -1.0242186912909184 0.18431870949516457 2.144087959023 13 14 15 0.07978779290629677 100 3241 39 3261 28 2920
10701 -1.1852173249956515 0.20182614144615779 2.2132196118849969 0 0 0 2.0759352535728244 86 2941 39 3264 80 3842 28 2921
10702 -0.54130059130727881 -0.011536365665925672 2.3850864946773096 22 22 24 0.55108752136495409 100 3633 39 3291 28 2949 31 2799
10703 -0.21682616860299014 -0.12620351614741582 2.2279178997245288 255 214 52 1.8878855950841773 100 3555 39 3292 80 3696
10704 -0.94058425712750304 0.19691977209103789 2.8146483573429495 152 144 158 0.58688153055520864 100 3645 39 3305
10705 0.38510574625890048 -0.58210663410179575 1.9517468058937415 223 162 39 0.55860269104614046 100 3562 39 3307 80 3695
10706 -0.20009944844157584 -0.12311502331896253 2.8243615963727917 150 141 154 2.1681116843918269 100 3580 57 3186 39 3321 80 3858
10707 0.67212499219996946 0.19652081772798521 2.8966520121784325 230 216 178 1.3092581386929234 100 3577 39 3323 80 3542 100 3364 28 2828 31 2663 57 2920
10708 -0.42624666666161454 -0.23215256612651597 2.9923671025496041 155 102 76 1.0815944499031993 100 3588 39 3325 31 2832 57 3080 66 3582 72 3177 22 2570 14 2410 61 2970 52 2523 69 2085 63 2317
10709 0.35324454668055677 -0.46794701806274769 3.0817765466572711 153 100 71 0.99547694673251841 100 3601 39 3347 80 3752 28 3006 57 3148 31 2881 66 3589 72 3235 22 2618
10710 0.48965233789703116 0.16923364256271201 1.6738889977438809 255 166 24 1.9134959840300179 86 3116 39 3365 28 3100
10711 0.63145031387610062 0.15760459011184405 1.830809353597348 255 225 55 0.8386111341764575 100 3615 39 3378 80 3764 28 3056 57 3040 66 3197 72 2857 71 2718
10712 0.63205134435598997 0.15742910758699491 1.8310459474343606 255 225 55 0.78343622907342714 100 3616 39 3379 80 3765 28 3057 57 3041 66 3196 72 2856
10713 -0.90460083031290039 0.095600671934763376 2.2890325698419467 255 238 66 0.49152788673632219 100 3629 39 3386 80 3791 57 3113 72 3139 66 3539 22 2549
10714 -0.76464325381222831 0.055276330027803078 2.307335228728852 255 235 59 0.50066963595425074 100 3630 39 3390 80 3794 57 3116 66 3621 72 3207
10715 -1.0673409198303616 0.17358918125434808 2.4742099232206298 45 33 15 1.3076460891960815 86 3104 39 3392 28 2938
10716 -0.19607330241160259 -0.20977187267667582 2.1218543833705454 7 8 10 0.69798632315452114 100 3701 39 3395 57 3119
10717 -0.64723326503040712 0.047860927897466356 2.4845034487447788 255 233 60 1.2005323008292352 100 3636 39 3400 80 3852 28 3066 31 2868 57 3170 72 3273 66 3697 22 2649 14 2474 61 3050
10718 -0.5475970863078401 0.0010682814575996864 2.4511265721230204 230 170 39 1.9069865765918237 25 3429 76 3188 39 3401
10719 -0.48447195541603638 -0.074537112479966569 2.4178969843966454 188 145 33 0.098486421218485276 100 3639 31 2869
10720 0.34376618446269241 -0.58608674553442386 1.9001285100669241 225 163 40 0.42863504824749166 100 3556 39 3406 80 3793
10721 0.60656422488803408 0.24544267885710727 2.9223629017819777 230 214 177 0.75143621496993152 100 3660 39 3415 80 3806
10722 0.52248690780258744 -0.50505738500682018 3.1384528194676213 145 96 68 1.1101903893952345 100 3674 39 3426 80 3824 28 3093 71 3380 10 3100
10723 0.31147387138821886 -0.17860582762882116 1.690964063910382 13 14 15 1.6727806721242466 100 3685 39 3444 80 3761
10724 0.49997713767348734 0.11000927241353399 1.8517057907235439 255 254 63 0.46944690128997119 100 3619 39 3445 80 3768 57 3159
10725 -0.49079784477772426 0.27806721926432965 2.2092322961648367 255 202 52 0.5850810603340133 86 3105 39 3451 28 3046 57 3110
10726 0.5349035481041331 -0.5731803307631238 2.059062030845995 255 254 70 0.44517228324715558 86 3236 39 3463 28 3122
10727 -0.085046188950159807 0.019631869836171469 2.7890569080419803 39 35 29 1.2319303546889324 100 3706 80 3857 66 3666
10729 -0.29557907031425273 -0.0866196024523153 2.1493988342589203 241 204 60 0.4827420934913535 100 3757 39 3485 80 3907 28 3112 31 2903
10730 -0.40837457882364681 -0.023299645708254678 2.2345278990402195 126 80 11 2.4474902473592803 100 3728 39 3486 57 3120
10731 0.73386213603510908 -0.29854015295806713 2.0488539843228795 255 205 53 0.68006549349939682 100 3732 39 3495 31 2945
10733 0.19049018191600947 0.10325312037197443 1.6565977305078734 0 0 0 0.37998576556717972 100 3764 39 3504 28 3133
10734 -1.0672959356072662 0.16420819307076243 2.0033896035824932 253 200 53 0.30837741194534635 100 3750 80 3903
10735 -0.36242924865528531 0.35086688173695868 2.0910459497853404 254 210 67 1.780073942472979 100 3718 39 3510 28 3172 31 2963
10736 -0.71952975448293133 0.1429485834825166 2.2679217452504461 147 149 165 1.9031960218592312 100 3754 39 3514 28 3159 31 2957 57 3221 14 2493 22 2658 61 3018
10737 0.7101558836873233 -0.23214687113048108 1.9966322281412041 85 51 36 0.51423097121409644 100 3758 39 3515 28 3163 31 2961
10738 0.7101558836873233 -0.23214687113048108 1.9966322281412041 85 51 36 0.51423097121409644 100 3759 39 3516 28 3164 31 2960
10739 0.049112206428414011 -0.29072825429277632 3.0752392252999736 113 75 57 1.3439536639264162 100 3763 39 3517 80 3914 28 3169 31 2962 57 3231 66 3703 72 3299 22 2674 12 3501 10 3117 96 2507 61 3058 71 3411 16 4110 8 3557 73 3573 35 3443 52 2707
10740 -1.0018145600017629 0.36951809278083436 1.7274043985611407 255 230 74 1.2957389945117388 39 3518 28 3154 31 2927 57 3193
10742 -0.65142993081197154 0.17327948862292572 2.092338934918323 255 233 62 1.0402139286495331 100 3772 39 3524 28 3182
10743 -0.86956271622515158 0.12869659213473009 2.3824604712736015 247 189 45 1.0939354596906474 100 3775 39 3526 80 3934
10744 -0.2192445333820866 -0.027383709355911418 2.4574565284868575 208 179 112 1.8206936698043896 100 3776 39 3527 86 3264 31 2969 28 3180
10745 -1.0446071420628364 0.095894150325564115 2.5233619226833492 24 22 22 1.7141496473237547 86 3262 39 3529
10747 -0.29259357529437902 0.44206339787324733 1.8836021545435671 0 0 0 1.650024547715196 39 3537 57 3253
10748 -0.80104099378493887 0.18978149719833248 1.8308148090191199 255 230 74 0.37413964755544321 39 3542 80 3946
10749 -0.84793400108891581 0.30004839465022076 1.8850658696657925 255 230 74 1.1393936076644806 100 3789 39 3543
10750 -0.80996070482970628 0.23583698436442352 1.9024621364958874 255 237 72 1.7979670101178749 86 3280 39 3545
10751 0.52062858483247754 0.22916544115714149 1.9318106448609227 255 223 52 0.034466237360000748 86 3278 39 3547
10752 0.52062858483247754 0.22916544115714149 1.9318106448609227 255 223 52 0.034466237360000748 86 3279 39 3548
10753 -0.41892584907721592 0.27268372911181865 2.1848659218186617 26 27 28 0.92478953168361433 88 3063 68 3286 44 2871 15 3287 92 2799 86 3179 39 3446 45 3624 100 3692 80 3840 28 3106
10754 -0.31749273714960585 -0.23541021997910494 3.0211318169843495 40 27 23 1.2117010554017755 68 1769 44 1599 92 1603 86 2014 39 2628 82 2348 34 2266 5 2332 78 2291 54 2775 4 2607 43 2774 68 2544 53 2299 32 2560 11 2780 76 3223 25 3218 100 3160 28 2086 28 2344 31 1919 57 2131 65 2027
10756 -1.2217114455746463 0.22279780505776062 2.7041168876751995 122 123 112 0.21646285820072006 39 399 28 1145 31 1072 57 1311 22 1025
10759 -0.25688914725777479 -0.027507694991447167 2.8054491541379618 136 131 145 2.1772305811212642 25 1419 39 1678 76 1461 14 1024
10760 -0.71646465651157698 -0.15536947601481602 2.3476625310683272 93 53 4 1.8909567860743146 100 2080 39 2075
10762 -0.80810225307859007 0.22501881756466618 1.6283092533776302 255 237 67 1.8570116967675574 100 3714 31 2888 84 1972
10763 -0.54178839692511027 0.030344087812273123 2.6840912370814696 28 24 22 1.1892781566863952 100 3784 39 3539 28 3189 31 2978
10764 0.6248714725604364 0.0055611719342130942 1.6775831562336239 253 151 24 0.97443388425212463 80 63 28 150
