# 3D point list with one line of data per point:
#   POINT3D_ID, X, Y, Z, R, G, B, ERROR, TRACK[] as (IMAGE_ID, POINT2D_IDX)
# Number of points: 463, mean track length: 4.9571807502841985
4807 0.15307912491903033 -0.031094555013234014 2.0949744199936222 19 20 25 0.91991607815344234 48 1720 98 824
4808 0.11833638027066887 -0.51525811083272266 1.856330717444914 37 42 55 0.32073869154791779 48 760
4809 0.13789593079114557 0.72941625017803369 2.8252477709864334 37 25 22 0.43810758509148323 98 2266 48 3918
4812 -1.1866693717864751 -0.27192622640432496 2.0621045016785677 255 235 79 0.98294292967249153 98 848
4813 0.30896376619061666 -0.088696845724853701 1.6709355957853589 156 132 37 1.8730401872961753 48 780
4818 0.058086650102700955 0.023084953510959832 2.6465964793092716 13 13 15 1.5247029000752796 83 850
4823 -0.71355103747528659 0.0008564307031224995 2.4316341793789289 255 223 59 1.8170846553956324 48 870
4826 0.57182839274427222 -0.38657939998022556 3.279133640739528 234 218 181 0.1588576349982582 48 1596
4827 0.65422155332539855 -0.48374392457773546 3.2998367867848244 136 119 89 0.38713853762874612 83 1358
4829 -0.83113324971892577 0.85608919405802508 2.7973843868406085 33 23 19 0.56431752521792033 83 2733
4834 -0.22010012036676341 0.47967318561787164 2.8626479474858519 61 70 96 1.0056592203202914 83 866
4837 -1.0343778737204969 0.59681270961298449 2.785781067247167 58 66 88 0.39070523463285495 83 1383
4840 -0.75231577268495631 0.53471500934583716 2.8855404751431388 1 2 2 1.7952127430755347 98 1570
4841 -0.015388905989448004 0.52028787509587116 2.8299314938758804 4 3 4 0.31216927569779757 48 2551
4845 -0.960356587387311 0.55149935595775024 2.6888076614142302 56 65 88 0.63504893230512371 98 1467
4848 -0.0017108433299357281 0.13548094692550536 3.0684413922782769 96 75 48 0.5879492504843612 48 3282
4849 -1.0982079138712497 0.56113822751797526 2.640734706420742 54 59 79 0.2152642881874933 83 1523
4850 -0.96332584400181631 0.56096731492691621 2.7247475871475633 57 63 86 0.55098459752623319 98 1580 83 2459
4852 -0.29718944468952868 0.46825871614886427 2.7727231315869569 61 69 93 0.60494630863664234 98 1090 83 699
4862 -0.97337285573583321 0.33885902926798805 2.355379125156285 123 104 25 0.44389058537110682 83 2819
4868 0.085619550742855294 -0.50375747381779656 1.9320729176636584 71 63 54 0.31970943319503226 48 2954
4871 0.1827125669672183 -0.11288802280122165 1.7461853932611209 9 9 10 0.20258843677169971 48 3613
4874 -0.32378592988247951 -0.39434298668280809 2.4079041260781628 126 91 33 0.62093040227158591 48 2606
4882 0.17696237592418046 -0.055322420356054884 2.073196681280304 46 53 70 0.27042532389787388 48 2025
4884 -0.31746073377109191 -0.44579875360962612 2.365099594502146 94 99 119 0.37801417942656101 48 2684
4886 -0.90320163133186127 0.048390685964015613 1.9639107528407924 160 122 27 0.58945587755022966 98 2679
4887 -1.2115837177371853 -0.22779526199783534 2.387002452911573 196 194 212 0.19013408607797322 83 2102
4888 -0.068454398395285027 0.067989894041080939 1.9822182874210219 59 68 90 0.27454413766977981 83 2067
4889 -0.24039547250131865 0.17088303219871609 2.1940502666396786 11 12 16 0.25118033143563162 48 3476
4895 0.20034780419866924 -0.53811018690664669 3.2970847655314226 108 78 66 0.40798831298266192 83 2301
4896 0.10057567396531944 -0.53556198867241256 1.8514213165251696 71 81 108 0.096977603197429471 48 2132
4897 0.18243633914136276 -0.11183870068853605 1.7453866144345769 9 9 10 0.1745851149016861 48 3534 98 3443
4898 -0.2436072260648604 0.23832544509128747 2.4682147186431407 65 69 51 0.64451971632813254 98 1366
4900 -0.85246462970900172 -0.088146824487149722 2.0054750395794274 216 152 27 0.43635056895761365 48 1758
4910 -1.044465748883366 0.55112548340120648 2.6547792691620429 17 14 15 0.20286100044518668 83 2588
4914 -0.89179271119401349 0.52287949193335148 2.6788964491623157 53 57 76 0.66149206849327824 98 3249 83 2687
4920 -0.121203442737152 0.24853464853111285 2.797111351354689 1 1 2 0.21533552990422244 83 2302
4929 -1.1321347413207787 0.63057068575752173 2.8503501459387395 48 59 84 0.38711688834393554 98 3454 83 3495
4932 -1.0310697895973597 0.5885380069058378 2.7441035118872956 60 69 95 0.30771870157159198 48 3830 98 2292 83 2421
4936 -0.24269838217896061 0.48651216324547525 2.8497271126660713 60 71 97 0.53313753467346492 98 3116 48 3787
4940 0.46487302230882305 -0.5826466529211014 3.313756811589442 115 83 70 0.21327713565020376 83 3750
4941 0.25073217837455969 -0.53571731996786154 3.2759658359321544 66 36 23 0.64927425860599652 83 3453 92 3495
4946 -0.61458788637963513 0.34967621745418104 2.6741004694476036 5 3 3 0.034845582150718028 48 3285
4947 -0.6401389204606418 0.35151032251079511 2.6746356507208247 9 6 3 0.16547325904552224 48 3287
4950 -0.69013223618637309 0.36044853655382086 2.6712654309112405 9 7 5 0.30751115721990557 48 2597
4959 0.53878796351043268 0.66812630193261957 2.888251859010794 40 25 20 0.35568323244843569 48 3925 98 2406 83 2848
4961 0.68872979932620937 -0.53268202588639746 3.3224761538967345 234 219 182 0.16337256814993262 83 2310
4965 0.65026136778259969 -0.57789831723238205 3.3384473111558557 232 216 179 0.20407859877599066 83 3356
4966 -0.71573537151311206 0.36288712940586076 2.6686477038441989 9 7 4 0.12055057500567141 48 1853
4967 -1.1073753519385083 0.32038380602769573 2.58189984515767 59 57 62 0.6091926807861916 48 4238
4968 -1.1485739322102384 0.30805556251259764 2.5848687119449187 35 20 1 0.40596785006439828 48 1902
4975 -0.87946495643395417 0.55046826819548333 2.7523306183915532 53 60 82 0.41204603408092733 98 2423 83 3310
4977 0.20573248619968065 -0.11231480748234354 1.7642520656126719 65 73 94 0.37612633176345117 48 3605
4978 -0.13896140319004313 -0.487689124111295 2.0482293593383853 119 102 28 0.16302877846215635 48 3644
4980 0.1641865745283865 -0.12268681050679348 1.7329782204575501 25 28 36 0.80573757769794752 48 2895
4982 0.23168738461631061 -0.48959722183835658 1.8711592488484041 140 122 40 0.63385987801215649 48 2957
4987 0.20720074653695605 -0.11304053343010989 2.0172299973488586 24 23 24 0.54545013397226561 48 2617
4988 0.19078062079031274 -0.18242898060695095 2.0208482822033766 101 77 17 1.4653119866566182 48 3623
4990 -0.41031076729728422 0.47682348464176172 2.7469473784739935 59 68 92 0.22908050400313731 98 3178
4991 -0.87921082561697994 0.55079003711902708 2.7518615281934675 53 60 82 0.4143947385213545 98 2250 83 3023
4992 -1.0068722516491215 0.59376928292852349 2.8059505741392812 31 38 56 0.64421520178784497 83 3510
4993 -1.0982831521173961 0.6071774125931817 2.797067472264918 30 35 51 0.66261951037398348 98 2276 83 3500
4997 0.29880429868250646 0.087828383047398206 3.0866850081500563 137 123 94 0.1010871722569285 83 2889
4998 -0.88043984935709019 0.53091466664010423 2.7015223758902258 58 64 86 0.30958261946263449 83 2694
5001 -1.0925995323368285 0.56335237813001893 2.6582039104141781 27 33 47 0.37195187392813345 98 3210
5002 -0.99785707373705168 0.54979245988000358 2.66808857997678 27 34 49 0.40107497249465246 98 2261 83 3327
5008 -0.028861930102710591 0.53707971380976516 2.8543288304606977 9 5 5 0.14407118509508574 48 3067
5009 -0.9311285663657487 0.59939511681283442 2.8686670270854666 56 66 90 0.65991990830540714 98 2277
5010 -0.84021751150200663 0.29025567722555423 2.3554456654840079 86 71 16 1.3514364785201685 98 3432 48 1771
5011 -0.76530558588346842 0.25457502413128053 2.421202538506535 137 104 23 1.5138750744642016 83 791
5012 -0.6356724256843066 0.22768980086452606 2.3628498769167057 249 204 57 1.5051952155971822 98 2349
5014 0.34027714923205821 -0.54733156156480844 3.276397226400837 83 47 29 0.24610715371887465 83 3774
5015 0.46929083558973828 -0.62297513123132131 3.3319993385765585 67 38 25 0.15942887510785861 48 3462
5016 0.268911498361384 -0.53827624042194722 3.2745079651890636 79 46 29 0.28445967156810831 83 3773
5021 -0.83883154077565714 0.12378134222656934 2.4213830726316958 139 97 16 0.23008604721163906 98 3501
5023 -0.62451932229111684 0.12565041725487769 2.3915539306953191 165 112 16 0.92977015077337399 48 938 98 2219
5024 0.14961301683323236 -0.0057613112686943774 2.4922646842648768 105 106 104 0.21858005893109922 83 3805
5025 -1.133742499330203 0.27678598400967475 2.248669054432578 10 10 14 0.41762569008773731 83 3145
5026 -0.44004580182284286 0.042322588687179793 2.4241907177902662 125 98 22 0.48300274494963108 48 2710 98 2630
5027 -0.62085629920081953 0.33461281554533751 2.6751268371484134 75 58 12 0.42785162787906433 48 3273
5029 0.49727173675339759 -0.54767628457485684 3.3090538822567583 108 77 66 0.39283947862180085 48 3478 83 3661
5034 -0.38427042101244291 -0.39529306821071358 2.3737500680238193 238 202 67 1.5239704643765251 48 50
5035 0.043983529633745959 -0.49879006688416555 1.9383892919613579 79 96 129 0.36547477937637773 48 2918
5037 -0.55369092539989306 0.6242194076228047 2.923691872848782 56 65 66 0.10560128580376549 48 2976
5038 -0.091423626105322287 0.5623936537433144 2.9083400353307978 5 4 6 0.2090022577553039 48 2573
5040 -0.84691912712518624 0.68457374351633093 2.9022596207693643 5 7 11 0.19729317668946383 48 2263 98 1632
5043 -0.36876812837424738 -0.33991898123985043 2.3384123830937154 125 91 19 0.74506524316300871 48 1128 98 965
5044 -0.52185768425950307 -0.067757971106208459 2.4590907244913138 125 91 19 1.6517235975993578 48 1067
5046 -1.1293310016357929 0.085825987865449566 1.9499237699078777 130 114 36 0.41148056611789047 48 2154 84 2625
5048 -0.098719838886358907 0.45258544778656146 2.8102768982066095 31 34 47 0.93659644195496827 48 2382 98 2140
5049 0.35022530539952168 0.69070834109633827 2.8600109289815654 102 72 59 0.48483989160036567 48 971 92 1225 98 1150 83 480
5051 -0.4231652093502436 0.077271373663876555 2.4808709647045708 81 54 9 2.2470906496693011 98 90 83 45
5052 0.78157188423310187 0.16725902479072527 3.1009804342456366 227 212 176 0.20639718328951273 48 4257
5053 -0.99117470829949206 -0.037971017602940214 2.3576658455467201 139 126 123 1.8594482380291144 83 0
5054 0.51198280501965487 0.21035280110292973 3.0378917895692954 231 217 180 1.4148478959505482 98 1
5055 0.27013060031905206 -0.70560220717083533 1.9731513018375002 153 133 42 1.8212798388713343 79 8
5061 -0.11723497341377265 0.21277048523412159 2.8228675002443722 30 36 54 1.6332991638151353 83 29
5066 -0.72666334616557915 0.33541569046566411 2.4288296440510155 105 79 16 1.6383904242694114 98 89
5073 0.49172783097068246 0.076825830610410137 2.0502466968408384 0 0 0 1.6478483192772329 98 138
5075 0.13533037663923708 -0.045460690722912721 2.1811570052441183 101 83 21 1.0453897888725154 83 73 98 102
5080 -0.95393776223981552 0.53003580609361478 2.6635013921245672 49 53 70 1.3429097812255715 98 146 83 108
5081 -0.11408554716455435 0.41582009593291203 2.711287211773973 45 50 67 1.6425379876510022 98 145 83 105
5083 -0.26342252770947605 0.17555776093121708 2.3951137231768658 106 88 23 1.9580506266576814 48 103
5084 -0.023913041717199358 0.14411223918042659 2.7803866484864481 120 96 25 0.90069942931252933 83 115
5085 -0.73908103699035799 0.37363183281889695 2.5351708889100122 113 100 29 0.56017982924891385 83 213
5094 -1.0966595143932902 0.060507465294097236 1.96040575698473 255 233 75 0.60988264470308118 48 91
5096 -0.065156175306237102 0.053880545223976034 2.2947844831029518 98 78 19 2.1568322842413261 98 178
5099 0.63728808886554256 0.044270676558178054 2.036532246819041 106 91 26 0.5862288665830182 98 355 83 163
5106 -1.1327068041122572 0.82915929889303763 2.8400625691341794 35 27 25 0.61375767896683231 98 168
5108 0.67510794395005802 0.047604850857835244 2.0488755302881829 0 0 0 1.9059894022225039 98 357 83 838
5109 0.9075199312808182 -0.1395983159603173 3.1773205762767431 237 220 184 2.1678646669447224 98 288
5112 0.78197525346325392 -0.60699975149983554 3.3755098242556061 226 210 172 0.60954605480214441 83 274
5114 0.97802804236872054 0.1515929402347527 3.0973157305844525 235 218 181 0.85460377473087501 83 465
5117 -1.5401710544848819 0.38326768594940908 2.995844183414651 87 93 88 0.75217127265188422 98 229 84 558 79 507
5118 0.54661717305645141 0.2289791525142138 3.0662753891072079 231 215 178 0.56182706311440922 98 511
5127 0.30861783871342202 -0.016516693404775636 1.7508535049435334 143 125 36 0.70302840621315177 48 464
5129 0.19782670023463328 -0.11739425237541648 1.7406960228266601 12 10 11 0.30552229579188606 48 592 98 823
5133 0.4894174192806397 -0.65494986165589808 3.3485969702724243 153 106 81 0.51331929821564903 83 236
5134 -0.22264992927389685 0.19090620481949552 2.4429483718448526 12 12 15 0.12916662126633677 48 904
5136 0.13449567544544927 -0.096021751175567799 2.0891900588974921 146 124 35 0.40300632944651049 98 139
5142 -0.040966611463313922 0.52693538988539435 2.8710436992317341 129 118 96 0.58720044950460815 48 375
5147 -0.81017769833206976 0.66572185336321887 2.9105536789660733 16 20 21 0.44399221239563597 48 324
5148 -1.2564380545041798 0.74660240721152349 2.7771963443845014 135 137 130 1.7213373695688599 48 322
5149 -1.5036654024460721 0.74346090280870847 2.8880329294152629 147 149 143 0.37013983010267426 48 315
5150 -0.96623122202555012 0.77788462317624441 2.8246706368993366 68 50 40 1.193873063618913 98 223
5154 0.90195810206712401 0.035295723304081789 3.1242609274349338 121 112 90 0.73975243679226121 98 1329 83 504
5156 0.5959209321329344 0.57183698348477818 2.8741739005238638 225 209 172 1.6456722045022194 98 504
5186 0.82966461765616084 -0.064598858186687674 3.1415224354523925 126 116 92 0.075796045303766033 48 1384
5187 -0.0061846089753782862 0.087524983800521927 2.914019656666067 132 95 26 1.1306893900892556 83 1030
5189 -1.1250970626371128 0.39424795687899977 2.5705351468785529 20 13 6 1.1318740884433354 83 3833
5190 -0.1577752417906424 0.10277128396368918 2.3847384170463806 109 85 22 0.87092679855091393 83 864
5193 0.44494943337718224 -0.5146555431551757 3.3144561304832849 58 37 25 0.87142173512735244 48 1052 83 1025
5194 0.37584926951393621 -0.50779137541862118 3.3135991154903071 55 37 25 0.27876355069602887 83 1023
5197 -0.23104775761623325 0.43908693996064163 2.7394929137523798 26 29 40 0.44018497583339083 83 738
5201 0.12239998904462676 -0.45356439352414302 1.8399294288993731 113 124 155 0.42815404552532693 98 444
5203 0.12266988135542201 -0.45456812882319586 1.8409064159226833 113 124 155 0.45720221796706401 98 382
5205 -1.455039404232096 0.47011191133661162 2.9851597046787384 132 134 128 0.18582489687551718 48 973 98 715
5207 -1.4687884954230015 0.98370603337399287 2.8152599705247203 53 36 29 1.1797899383377177 98 1252
5208 -1.3998417415547904 0.80243718200914871 2.8729914923983686 150 152 145 0.4872135174075844 98 734
5209 0.37913534138689187 0.28226347173433736 3.057338842344552 116 107 86 0.117173026844441 98 1072
5212 0.23552246291623494 0.21072777765117667 3.0753825501391199 229 213 174 0.19168620379062962 48 979
5213 -0.94216284280979756 0.55011467461204266 2.7081572577706781 18 20 31 0.51223179432571253 98 892 83 655
5214 0.8628535554808493 0.14447993231007139 3.1005455368103148 122 113 90 0.15889242129682016 98 1334
5225 -0.12985956774910754 0.43515733098729387 2.7894168496978207 28 25 17 0.70270968409735768 83 604
5226 0.93264757631603967 0.13460048162782884 3.1029929824640727 128 117 92 0.22865318002077339 98 1339
5237 0.10745648476518999 0.12304284547345917 3.0777706461460035 225 206 166 0.15202950156218176 48 1478
5240 -0.16325152791746533 0.42563109690327411 2.752456512828827 28 31 42 0.28927589844059681 83 742
5245 -1.3346023165201004 0.82156343949540467 2.8709809033313105 93 96 89 0.23123252487727644 48 1727
5248 0.24979572625652924 0.6740397440472462 2.8565514384452708 107 77 66 0.28228078562732517 48 502
5249 -1.3392263005773095 0.72671929307047334 2.8978513818305625 144 146 139 0.25715933637075733 98 670
5250 -1.2647742652067999 0.67331950044143185 2.9214268710334101 67 69 61 0.48961264209009286 98 1237
5254 -1.1048181795479843 0.60597428397990127 2.7774833174901152 54 61 83 0.77044526910767785 83 887
5257 -1.1654228880913118 0.61974233712913707 2.8170623801960648 47 57 82 0.54143779501288358 83 894
5263 -0.082203979760563983 0.10565187962479866 2.7193097068986298 84 58 8 0.32111335424083559 48 3325
5270 0.060379697841656525 0.11716567267006106 3.0798459861765597 96 79 56 0.12138632258014197 48 1873
5274 -1.296361199967301 0.39234835233336784 2.5801271327156114 28 30 27 0.88218913052085934 48 3485
5283 -1.129991984128625 0.057467802926456493 1.9553902231936411 255 232 78 0.35034559794870945 98 1734
5287 -0.55048096595150298 -0.10045843473958405 2.2038000415411267 60 59 62 0.30328220207734674 83 1233
5291 0.78752438748216613 -0.018728389294913127 2.0172402725317395 167 104 16 0.70474703730753219 98 1781
5293 0.17428622179028511 -0.12338605750325321 1.7363331879980095 77 84 107 0.41603247892063439 98 991
5304 -0.21269227235056276 0.23316606862280637 2.4561542063266586 59 70 92 0.69231947930763393 98 2017
5309 -0.54497138321018568 -0.095190644635342353 2.4615815295917645 179 147 58 0.81856668915887243 48 835
5312 -0.64642440508194765 -0.15666855845794858 2.5024933108218637 255 211 70 0.53577741753120578 48 840
5313 -0.44478760540010592 -0.15490752218705642 2.4914061526467353 135 92 14 0.56555496102645442 98 1646
5317 -0.44471076324442754 -0.0059641757703902745 2.4333726177934127 140 101 18 0.49484486696363827 98 562
5318 -1.1340877567349792 0.18497898301694701 2.4796899619233166 228 186 52 0.615520443554608 48 1832
5323 0.5011985025369079 -0.37557431453020307 3.2742071437767435 235 219 182 0.14973710342548838 48 1308
5326 -1.3924709257825418 0.9433580903721116 2.8080107401607277 53 35 28 0.69342318169304906 98 648
5333 -1.0679729542732317 0.60534034030666461 2.7784523070765648 53 62 84 0.25541362662308625 83 1506
5341 -1.297042175220922 0.39169271652824306 2.5807935320038102 28 30 27 0.96143889817944572 48 4150
5342 0.14523841462018314 0.040088814781427229 2.9195112044159157 119 99 66 1.9273730687533306 48 1393
5345 0.85630853446636546 -0.33816345199835574 3.2703055876119027 130 117 91 0.13849474697330402 48 1350
5347 0.38335641284971456 0.66698687033010784 2.8527047595018229 108 77 66 0.52945749008202803 83 2857
5348 -1.0984696536488494 0.57139861155257188 2.6743783650210937 57 65 87 0.77565925724176399 83 1520
5349 -1.0996986095936561 0.57080076741578112 2.6738167214695574 57 65 87 0.33514850576641581 83 1521
5352 -0.17676325104482357 0.42873852766293941 2.7273517973495616 56 66 89 0.26887467460253894 83 1516
5361 -1.0276896302304028 0.55929478371238417 2.6798800165278154 57 65 89 0.32139202252515409 98 1549 83 1359
5366 -0.25444388383597383 0.46605037037954372 2.7867060984733887 61 71 95 0.47426415606084682 98 1867 83 1369
5367 -0.1303344309311365 0.4534974555042392 2.8161890608345757 21 26 40 0.74054316623255745 98 3156
5368 -1.103634324272164 0.58228329251059552 2.7100025673454815 58 64 85 0.65183049827307582 83 2635
5380 -0.25100606742697562 0.44333375509514417 2.7196529901099256 55 62 86 0.93179300373763885 83 1041
5382 -0.12545339182679868 -0.51872381151241409 2.0613148602693858 248 206 77 0.62376188911493113 48 1218
5385 0.20141458346344704 -0.11386481444200017 1.7540703720974105 13 12 8 0.13543404714380033 98 3085
5398 0.90409108254308612 -0.051690765724484812 3.1464423562369523 228 213 177 0.2179942326576465 48 1910
5399 0.15420835976215011 -0.047445607025311955 2.0638084206367506 24 23 24 0.63920426508331984 48 2023 98 1094
5403 -1.0870828660437657 -0.14199467615059386 2.01436986241155 255 227 75 1.1037050079238164 98 793
5409 -0.83265040917717326 0.5572719687488773 2.754630477921352 5 5 7 0.18213968619564652 83 3012
5410 0.30613087751686524 -0.072630845012497475 1.735429966657021 105 79 12 0.44896193663207445 98 838
5415 -0.83297741159655903 0.55739597603536284 2.7548217790355554 5 5 7 0.21828324510072417 83 3323
5425 -1.1133924218863522 0.83522994827762065 2.8246480785784875 64 45 37 1.0513991609991313 48 2931 98 3451
5440 -0.87140684418055292 0.55033502530542355 2.7331360052794396 26 33 48 0.71161968774183371 83 3253
5444 -0.87335875248591777 0.54227331929995615 2.7237925522553192 55 63 85 0.52602883363045094 98 3191 83 3274
5445 -0.35458298809792832 0.48267671744232377 2.8094502174787155 57 67 91 0.33963887090642486 83 2487
5454 -0.41227547409739884 0.045753602263128509 2.4228752122966957 117 84 12 0.57827538308446336 98 2633
5455 -0.48423418237517135 0.055646683466027809 2.419766543326769 121 91 17 0.51115638279745323 98 2776
5459 0.73069593831187396 -0.67157697246325665 3.3513408504207129 63 37 26 0.22194601395632654 83 2566
5460 -0.80861394967033662 0.32562468538502104 2.3521778498983053 156 119 27 0.34553124754860887 98 3408
5461 -0.80785383438257397 0.85924579039686544 2.7959293668744949 51 33 26 0.44599062959703267 98 3453
5468 0.16041222410221787 -0.00749911425350204 2.0813989963646558 69 77 101 0.37117721695041966 98 1815
5469 0.1641865745283865 -0.12268681050679348 1.7329782204575501 23 26 33 0.80573757769794752 48 2652
5473 -0.99887362998423923 0.54835297836288199 2.6692079608501476 27 36 53 0.44162692104707363 83 3655
5477 -0.19980298637930563 -0.47894111414759116 2.0720447851586257 118 99 27 0.41658638756302874 48 3686
5480 0.1060584309507667 -0.5290906597275058 1.8644162121897643 83 97 129 0.49713061248038481 48 2961 98 2324
5481 0.16007743116496806 -0.16646146142094348 1.7543601804317148 66 79 107 1.1854503954007087 48 2921 98 1657
5482 0.37059971347537402 -0.036652658409609039 1.6146165061454545 104 91 26 0.1754951103608105 98 2309
5483 0.26187310802393188 -0.33882503075568043 1.8221582750429242 84 73 28 0.3751964321647378 48 2944
5484 0.060182651076166993 -0.49645922149455796 1.935466947091619 12 13 15 0.29418516629373342 48 4244
5487 0.16014542412214708 -0.0063758074408033147 2.0808500636551233 69 77 101 0.30418425451133235 98 1794
5490 -0.74651149452732923 0.10323450884770902 2.1229095567834273 131 113 55 0.12072061341492235 83 3196
5492 -1.0663233623812529 -0.060545285662133318 2.0016225352101698 211 145 26 0.34362609453489218 98 3028
5499 -0.38380862310843078 0.48411047278211333 2.7667829868439933 63 71 95 0.32455538072734297 83 3300
5500 -0.42131126858628415 0.49666823250706932 2.7759269789756069 60 70 93 0.092674343601132886 98 3117
5503 -0.89202114221465423 0.52710686063688861 2.692997211625229 24 30 45 0.52644437541628342 83 2671
5504 -0.36659103922753539 0.46367723496427599 2.7466627470438638 30 39 56 0.4054089332047171 83 3881
5508 -0.3579005347561956 0.48747038091463468 2.822606974920093 38 46 63 0.28708252492737046 83 3477
5511 -0.24825978964511503 0.4832528615954842 2.8365387207663963 34 40 55 0.62919116627113869 98 3123
5513 -0.068552277091872726 0.46188041248537914 2.624987313795184 9 8 11 0.31527607106962158 48 3854
5516 0.93513118268594397 -0.011103716106847537 3.1231816185806824 135 124 99 0.47451751874926007 83 2921
5532 -1.1016709637124176 0.77187074850784332 2.7004420956809949 69 72 70 1.0981934592971863 83 2502
5539 -0.20371933998763031 0.12805634941652572 2.4004407547379647 127 102 38 0.19765893024199846 83 3697
5544 -0.071835674766796254 0.071815354207009602 2.6109575669139824 85 60 9 0.2225528769293855 48 4029
5546 -0.68115775063850481 0.24609517517983415 2.3637292474670151 17 20 26 0.28456244509441114 48 2869 98 3497 83 3595
5554 -1.3381726639571303 0.48834083660485778 2.5689934352934372 58 63 80 0.42688898132860525 48 3860
5556 -0.59415290368566609 0.3190977356307732 2.4368213398293173 14 15 22 0.355659629142971 98 3449 83 3797
5557 -0.078892782239882331 0.091284217483337649 2.6696291333118003 106 84 21 0.13036082747598546 48 3344
5560 -1.0831213227116698 0.58737741584378145 2.7264511767239976 25 32 46 0.10483103862828221 98 3587
5561 0.042860599627992185 -0.49047645640590304 1.9469661323827581 13 12 14 0.39720673592579359 48 3657
5562 -1.1116893136161305 0.76459954017645992 2.8701964638735493 90 99 98 1.5522071104788391 48 162 98 150 83 120
5564 -0.76891766225396174 0.36405536854313314 2.5172607908959042 82 59 9 1.0985271547030624 48 1493 83 990
5565 -1.3433007576317488 0.95444249154080485 2.7988718644560615 141 98 76 0.65509758606192892 48 1466
5566 -0.62514090231280528 0.26641268612294972 2.4256727274951237 65 55 10 1.3545320573134729 48 229 92 574 98 1379 84 722
5567 0.081927742789427216 -0.55962061135058527 1.865940104455843 121 134 165 0.51606966110377994 48 1226
5568 -1.0714458334306471 0.69984689748159046 2.8941683880989029 51 59 59 0.12631334569042166 48 2260
5569 -0.51084024919893944 0.63412893919452529 2.9200492798060744 8 11 16 0.12482397327887128 48 2508
5570 -0.28823583751915866 0.56580166692244094 2.9414818471084403 3 4 6 0.15743918462220241 48 2564
5571 0.48728719953463212 0.055672566461503134 3.1009386028094816 117 110 93 0.29049804654438 48 1491
5572 -1.2036888210878254 0.93251525678256897 2.8074989182561088 129 91 72 0.49600841696267922 48 1474 98 747
5573 -1.0827454370813743 0.71700127796307866 2.880527408638899 5 7 11 0.37989460159107347 48 2250 92 2514 98 2316 83 1122
5574 -0.8422317145945537 -0.025967922009205432 1.9867831188041494 177 133 27 0.1789831955286468 48 2634
5575 -0.36083016360702275 0.5762476686142658 2.9388532588415233 3 3 5 0.25881055619816073 48 2558
5577 -1.2115598264682887 0.02954765741205671 1.9706707987829011 141 118 35 0.49709949836635625 48 2020 92 2098
5578 -0.75257385665437782 0.21888486340463653 2.3965833681691331 127 107 30 0.98561717681849537 48 3336
5587 -0.21346356618845075 -0.37771654191500548 2.3482946967707883 0 0 0 2.2191477387083163 98 62 48 36
5592 -1.2823560689147424 0.61725052998642993 2.7777924888086227 104 106 98 0.92219941259070948 84 74
5600 -0.38177090430437466 0.61359154222732104 2.9133653123269374 2 2 3 0.73780414290237084 98 449
5601 -0.81294577601157381 0.4784189275185739 2.7242594236954982 80 66 15 1.4217334514396047 83 107
5604 -0.010619017376694462 0.060462084993314215 2.5817800547211185 110 89 24 0.25494009368026094 98 560
5606 -0.26985494746371225 0.4845033264944078 2.833746142748113 61 69 93 0.40766299334352185 98 557
5608 0.17876643439730824 -0.098153353969702789 1.7688711554270355 113 95 34 0.49530327112670752 48 497
5611 -0.0044295592481239723 0.067501572256037007 2.6207264226922438 81 55 34 0.72929793252555875 98 633
5613 -1.4356296469165575 0.38254490701270011 3.0091177916041163 68 72 66 0.96147904597903455 98 432 1 409
5616 -0.31974104711084955 0.59586265241259118 2.9344560714566259 10 12 15 0.69191483567549006 98 717 83 452
5620 -0.2176929869015379 -0.50753693051099802 2.2521512686911982 96 110 142 0.5960215825716737 98 353
5621 0.053505509488523992 0.048197306741066009 2.5798264357677114 115 95 24 1.2357352890476236 98 630 83 246
5624 -0.57724122814810996 -0.080920817739317197 2.1947723053232537 6 7 8 0.58780862397933942 83 1234
5627 -0.70156209937609004 0.18657451341922779 2.3597909851955357 66 76 100 0.67543457133908491 98 680
5632 -0.40823129769636041 0.49076260194095056 2.7628892048864686 7 6 8 0.12142968920728613 83 701
5638 0.081403070407588429 -0.016295989808895475 2.181541063348134 104 64 9 0.94136326817786775 98 1745
5644 -0.9913236680018348 0.55319667443216414 2.6889675233571748 58 66 89 0.23843922349078328 98 1551
5646 1.0445035109966756 0.56355638601695035 2.9210857082913186 116 84 71 1.0794740208127596 98 1432
5655 0.58200932318147047 0.18938092018890906 3.085726957772235 119 109 87 0.41545611653034309 98 1457
5657 -0.14121504246481065 0.42588842239407015 2.7320558348531723 60 66 86 0.32959613810211169 98 2098
5664 -0.56800945643927803 0.32446133655253395 2.4361187315769297 7 6 9 0.61039902495387155 98 2454
5665 -0.98165892886587514 0.37138731221296761 2.3611564305639678 80 68 55 1.3057352595912066 98 1433
5666 0.25687702630929143 -0.4943336720642833 3.3026837397078008 44 27 16 0.28902639774533612 48 1754
5667 0.75320276617448445 -0.52646437188006656 3.3329941246958037 114 106 83 0.19077388996082564 48 1317
5669 0.75320276617448445 -0.52646437188006656 3.3329941246958037 114 106 83 0.19077388996082564 48 1065
5671 0.62788651810114693 0.027707406758357599 3.1134814838273144 121 111 88 0.31826621750172135 98 1915
5672 -0.18369823242435201 0.47642063087006797 2.8619191093278755 61 68 94 0.29184296537304 98 1883
5678 -1.0588328369557831 0.55415403164575416 2.6474995424221714 56 62 81 0.29064078261758575 98 2246
5685 -0.17685029771396379 -0.5005733704593277 2.2428154430469602 30 23 13 0.63751961692870185 48 3631
5687 -1.34209427939854 -0.19595409454135951 2.0541880520432416 254 233 77 0.32258882425812874 48 1184
5688 -0.16966040521021419 -0.49236858856381899 2.2771902593243118 0 0 0 0.81172367990338956 98 1775
5689 -0.22344424277049263 -0.49965586877711016 2.2753300265107756 14 9 7 0.41527899844327276 98 1776
5693 0.20409818948895084 -0.10202931924785424 1.7756016332556575 17 17 18 0.73734342603582981 48 2893
5694 0.85651040719177585 -0.64141069974443643 3.3805826902241232 239 227 185 0.58324476823945981 98 1582 48 1063
5697 -0.12610200619603967 0.42753290087261031 2.7406957521348434 21 21 28 0.23625180984687813 98 2895
5699 -1.2960341010085397 0.82674448747345908 2.8649996395568831 124 125 116 0.12505083594751476 48 2933
5700 -1.4410527717524444 0.96366129512655807 2.7881133952907664 62 39 29 0.14741654374111984 48 3949 98 2234
5701 -0.12623041919459105 0.42766654720450403 2.7398467972994136 21 21 28 0.26313826486165626 98 3384
5702 0.3205931495030569 0.16574954040402134 3.0914713549133452 100 94 79 0.46423715672252008 98 2724 83 2931
5703 -0.75733801078920404 0.75406486656186855 2.8585497649108911 36 28 26 0.32933819193834452 98 3629
5704 0.62162317901802133 -0.0048727456028160067 3.1268530004872463 230 215 176 0.26955347383444284 48 1739
5708 -0.21789445653491837 0.47474703203005048 2.8254655529390895 64 68 88 0.15426527100267812 98 3172
5714 0.68800620543886071 -0.4992836709657093 3.3135274125965317 137 121 90 0.81705698642851987 98 2607 83 2329
5719 0.84059857117816461 -0.65036234701876272 3.3585360081610474 92 52 34 0.21974211870103608 98 2540
5720 -0.21997889207556845 0.20364521583390185 2.463655717344007 99 91 25 0.52696882066254713 98 2624
5722 -0.35548204720024607 0.48563061300122323 2.8434826679578147 59 69 93 0.46103168969494535 98 3138
5729 -0.00053954262929100522 0.028207382729138576 2.5568417756010513 118 97 25 0.69500199128396378 48 2738
5731 -1.2365046946117506 0.30767433470281991 2.3852933944944286 113 101 29 0.51159457150463683 48 4228
5732 -0.7579456543585279 0.35842826593638744 2.5178326993816449 108 89 22 0.30186225716909593 83 3826
5737 -0.32583956572332129 -0.15236674673765549 2.2545699579091876 190 166 64 1.3473905023057959 48 2640
5738 -0.59548030319491785 -0.092338385294360226 2.1974087115252949 17 12 9 0.31470265176341294 98 2807
5741 -0.39414712791863094 0.493341415998231 2.7763898091985784 61 70 95 0.093004864430698317 98 3122
5742 -0.23258242528894524 0.46019304865955829 2.7714020811129489 25 31 46 0.55919266352842267 98 3167
5743 -0.36679928037491477 0.45784959326498614 2.7534184967592128 27 35 50 0.37976255306704615 98 3151
5745 -0.96389315595945513 0.55612531879458826 2.7070291259755681 59 67 86 0.45034221998515828 98 3214
5754 -0.91839579642305946 0.57697458433445825 2.8007923525013898 39 45 62 0.75785642662163966 83 2552
5761 -0.45816057665994431 0.098497395385126474 2.4501477846548201 107 82 19 0.77197605116085422 83 3600
5762 -0.59548030319491785 -0.092338385294360226 2.1974087115252949 17 12 9 0.31470265176341294 98 3076
5763 0.012243015952763375 0.017652966447838495 2.4985990523440562 107 86 21 0.15950695425613812 48 4128
5768 0.018471895611314841 0.087937572075423312 2.693283030320897 118 98 26 1.9589915944072231 48 4125
5772 0.38993564707241296 0.066842724586399754 3.1000533770349876 234 216 175 0.42986446404023959 48 2604
5775 -1.028260578780321 0.44562259618667721 2.5405038645863804 4 3 2 1.8506623175155517 48 804
5776 0.98932093585188008 0.60673634542401822 2.9175688706969338 109 78 68 1.2443093693733787 83 958
5783 -1.1816653813654905 0.43646693115783997 2.7568987277854915 3 4 7 1.191562025515666 48 14
5786 -1.5880606096527397 -0.17832679662118761 3.2361196110665489 190 180 155 1.6817591345531682 98 20
5788 -1.2557635445887094 0.06045273757423162 2.3534952646201783 103 89 23 0.3311445313737495 98 67
5789 -0.20796512319886526 -0.39996401529281062 2.3690662216161273 0 0 0 1.7001984081069359 98 53
5790 -0.30550667183661251 0.032813987780481342 2.1975295825731167 158 114 26 1.6418163578250364 48 12
5792 0.72956057121523188 0.03737047897629301 1.9723350673997302 244 192 56 1.687452521138594 98 110
5793 0.7535397630998526 0.010838029275121888 1.9982891459538508 244 192 56 1.6144794926073083 98 108
5794 -0.18857328006976837 0.53792024499225721 2.9396056306449587 1 2 3 1.3388225411726089 98 51
5796 -0.42768960647828075 0.70311032289098241 2.8892029107450301 88 98 97 1.3195919751956036 48 37 98 52
5805 -0.18146478653571407 -0.4662929817879376 2.31204848875517 0 0 0 1.048681276962393 98 107
5806 0.13280853145292154 -0.18214498725428072 2.0517256670859796 148 129 40 0.620228113747059 48 181
5808 -1.1319423733634797 0.83303681295705967 2.8339263929879346 34 25 24 1.0272687198059312 98 151
5811 0.18009890566930009 0.0018537386044827873 2.5450751122220598 0 0 0 0.97664976126881753 98 569
5812 -0.35336412066111167 0.09681820654242182 2.1984010909646026 212 182 67 0.73195140203412468 98 182
5813 -0.13045448545447566 0.064437542381489715 2.2754291563954956 155 124 40 1.4739726390282044 98 419
5814 0.30746304802511593 -0.01918305415057639 1.759111539709332 145 123 33 0.62322830845967703 98 159
5817 0.0011150552910382111 0.55706364226573279 2.8209715525438899 215 198 159 0.82436250032402147 48 142
5818 -1.5021787411819114 0.33652841555811192 3.0095015654420867 129 129 119 1.4182232578200802 84 234
5819 -1.0203724714385052 0.68434465804143085 2.9196148043706853 27 33 34 0.44231926515998943 48 129
5821 -0.46458046387202767 0.21109085637916344 2.3873829228809718 79 57 30 1.88865924610333 48 232
5823 -0.3881537071522167 0.049721472411759421 2.4228520495225769 159 129 35 1.0883267366260791 48 402 98 565
5824 -0.81530916171309131 0.14376818469641323 2.4444407257474774 45 25 2 0.58308512089569897 48 798 98 289
5825 -1.3897722215225012 -0.16391524149995304 2.6008505993018511 0 0 0 0.53999218820871697 98 413
5828 0.49825074600658414 0.0026212941975061257 1.7520122260919493 164 132 32 0.36223737784686033 98 1049
5830 0.13424632556848159 -0.39758995682936399 1.8314666403794468 6 6 6 0.68207288921139209 98 199
5833 0.58596251069133898 0.52133798078681726 2.9422024771205093 231 216 179 0.60036267151289091 98 1412
5834 0.027218068366731032 0.076807821815489258 2.2100154632336033 24 30 43 0.21057545273292411 98 581
5836 -1.506363048122771 0.39356283388282431 3.0035446066467535 71 75 69 0.98121604751545599 98 484
5837 -0.66305313692643952 0.74576412517336965 2.8854360368075529 38 28 25 2.0014206579410807 98 225
5838 0.31258327902706334 -0.11692120903354694 1.722653593880153 147 128 39 1.108616125498078 79 278
5840 -0.80117698505313928 0.51024735353660322 2.7686790363390132 78 64 14 1.06401022946895 98 695
5846 0.86648013007774127 -0.59839886962323119 3.3732560359601433 238 221 185 1.1865040266304205 83 996
5847 0.010846631534490827 0.032480870434521532 2.5252438855852652 112 89 22 0.43742034702918653 98 662 48 937
5851 0.64153715305702597 -0.12622830497134063 3.197258265700663 238 221 184 0.73814005383719861 98 626
5853 0.1418661198224527 -0.32515063131602651 1.7930082829907181 113 123 155 0.98073960204684973 98 384
5854 0.18571769891101611 -0.10411322893005817 1.9088346055255034 120 104 29 1.2693918414937098 98 1055
5855 0.2252102655151445 -0.11105680101560333 1.7559995964538848 113 94 34 1.3987022611916442 48 777
5857 -1.1729550768812032 0.054388360708119185 1.9831280514035623 118 92 23 0.50036349057152651 98 410
5858 0.52346587805338241 0.052657168954161171 2.0511254807959127 0 0 0 0.7247764144575104 98 857
5861 -1.1259560108648454 -0.15644453310693712 2.0443724306580426 255 236 77 1.1039958309489863 98 967
5862 0.18848603786582979 -0.086739027992997902 2.022049720987392 130 115 37 1.0885753955086375 48 469 98 1008
5864 -1.4373399392132884 0.35398839367575163 3.0019553709446987 120 121 112 0.49620221979250179 98 701 1 823
5865 -0.70725252272453343 0.50264436804282209 2.8861162445247701 62 58 50 1.190204178330857 98 1281
5868 -1.6197655975685716 -0.27273766634427066 3.2316534287054854 72 49 33 0.88244176738111824 98 839
5869 0.72182481116394392 -0.0028398345677542423 3.1086414622007266 236 220 184 0.34425657490206696 98 1330
5870 0.35488069331825389 0.17906850508914701 3.0755118217728339 117 107 84 0.47583540013709325 98 683
5876 -1.3400705820743553 0.73031324143124088 2.8908326920749046 131 133 126 0.38624968272631949 98 765 79 525
5879 0.82383711590558428 0.19706408336227146 3.0683784343416756 233 219 182 0.48939278158678995 98 622
5880 -0.39805569691593523 -0.054161366495543213 2.4596174607718391 174 140 37 0.38293675033454111 98 1129
5881 -0.48006358671223992 -0.11663144173279344 2.4867846512623459 167 140 58 0.43887121762991882 48 536
5883 0.0025646558022546194 0.038582283585670091 2.1655387523151068 153 111 35 0.28637070063201048 98 2489
5884 -1.273634468287197 -0.18105556090066666 2.0321335669153195 255 238 80 1.379915677910408 98 791
5885 -1.0109591752369924 0.8197745039768084 2.8213095840318605 20 14 13 0.77737814040729503 98 752 98 1627
5886 0.010905172146414486 0.065303877449751552 2.2028046769915473 103 89 25 0.75621334032360887 98 1738
5887 -0.87844321026390459 0.067493627816723883 1.9780354872374695 110 96 27 0.32058413954988157 98 980
5895 0.29154340298028392 -0.010603446796840006 1.7772686611601072 136 121 35 0.3009053588745374 98 835
5896 0.27738401448964251 -0.07128609886931081 1.797291560085341 132 117 35 0.27905914259927722 98 837
5899 0.29982130664194295 -0.097894895023598411 1.7339592648936575 142 127 43 0.35051090067965429 98 836
5900 0.25279123033781653 -0.041038994980625972 1.858770960357605 115 105 36 0.49394601709157016 98 840
5906 -0.94752525124035269 0.58117875552809195 2.7658894034699717 21 26 39 0.55828150384423703 98 1282
5907 -0.018156628985254802 0.6234757355837024 2.7523362158393523 89 83 68 1.4724190067408773 98 1220
5908 -1.3972994734552648 0.76386978905233238 2.8888252138327326 89 91 82 0.52442422261264432 98 738
5911 0.58966948807003183 0.25529403849317894 3.061417960347931 123 113 90 0.14469714717485105 98 1076
5914 0.8632982088114538 0.14391712477487675 3.1010989943703531 124 117 94 0.17038656840961233 98 1086
5915 0.31765440117330412 0.36186113173837847 3.0273165579961532 119 105 83 0.12215170953393462 98 1103
5918 -1.3972994734552648 0.76386978905233238 2.8888252138327326 89 91 82 0.52442422261264432 98 674
5919 -1.326745972482908 0.75451520726310484 2.8913864896453805 79 80 73 0.54582867098308607 98 743
5920 -1.269946983102493 0.71933902590774745 2.8922737355914299 111 114 108 0.71638295560027676 79 645
5922 -1.4502346213969983 0.25451359539759127 3.0418820794394321 126 124 113 0.8835330826736213 98 1308
5927 -1.5238700972275463 0.43854493308723691 3.0033704022855776 77 76 66 0.44482859905992761 98 1248
5929 -1.3474996026076156 0.61873450015221021 2.9381488863298029 72 72 63 0.34029793666416303 98 1240
5930 -0.2508984185452961 0.43143068482714836 2.6832750872490418 52 58 75 0.57220074872054383 98 2050
5935 -1.5933786167351591 -0.35147224469520827 3.2395249230461434 153 105 83 1.1272746323842469 98 501 79 327
5937 0.81075843364407796 -0.19265704520027746 3.2199781417009081 128 116 90 0.18543754188213268 98 1460
5938 0.051939892746863128 0.10851348181138096 2.7932981191256467 80 81 95 0.66824296318494691 98 3430
5943 -0.19721838994302399 0.47059261155278514 2.802716194890936 65 71 93 0.62985226484962009 98 1829
5947 -0.094611666521300791 0.5278837424154188 2.9222373183725887 3 4 6 0.43938573364920036 98 1716
5951 0.70531914804704166 -0.54928935299500892 3.3339758921043541 237 219 182 0.47138670975318536 98 1302
5955 -0.39914431174328074 0.21315732080472713 2.5027325632483794 99 70 17 2.3617782353185155 98 1356
5959 0.60505884529918608 -0.2513509526232911 3.2250872673614404 234 220 181 0.24103980007438458 98 1361
5970 -1.6463288531589719 -0.18939455895493112 3.2134602719059795 231 217 182 0.16746114719909874 98 1218
5971 -1.5829443312665636 -0.17522083094979529 3.2161305714166089 115 112 96 0.1991461391566626 98 1217
5975 0.82685865987726348 -0.54160656732658752 3.3416209049202372 130 115 88 0.14796828640448395 98 1606
5976 -0.021646301317384264 0.060209461760315074 2.6009851879577512 108 89 24 0.44709249017255143 48 1845
5977 -0.26042078368469196 0.18407525990787105 2.514244353884294 68 55 11 1.3054107805174913 98 2005
5978 -1.0760068435974257 0.29752484866389256 2.4974524695548865 46 39 39 2.0609900088656339 98 302
5980 0.41333265404580588 -0.30170648140732365 3.2564741007259048 231 214 177 0.49957566791607277 48 1610
5982 -1.0885315363899817 0.30486045554926833 2.5820082007198244 27 27 33 1.1271671471278992 98 2046
5990 -0.19063960500056412 -0.49315434840357047 2.2881025100880117 98 82 65 0.55095656681326122 98 1773
5996 -1.1117727314467138 -0.19452781342639303 2.0493673267987549 186 134 28 0.47624302820428677 98 1023
6001 0.089786751862186931 -0.53857197414923652 1.8671008524737471 65 73 93 0.5904876861641899 98 2323
6010 0.32485051817456417 -0.018898686861746408 1.6902494889480972 113 102 26 0.49494538524973747 98 2404
6012 0.14737772258680848 -0.21262339377819706 1.7586032024040072 70 72 91 0.52464102718055627 98 1659
6013 0.16110414243750593 -0.20907066872395039 1.7473579163836803 64 76 106 1.0085778187989829 98 2395 1 1092
6017 -0.35922036166325588 0.026746463031059535 2.4111875039908313 169 139 40 1.3213586522772875 98 943
6021 -0.81121189138734107 0.039543205732022427 2.4588612659142326 167 112 23 0.24186066219629065 98 1995
6023 -1.3631420889095613 -0.16905576047420287 2.560869929634455 255 228 77 0.68390780774602711 98 930
6026 -0.52184169511063483 -0.0084991015134961087 2.4418537316855788 143 104 18 0.20369744544066321 98 1583
6029 -1.135878045922891 0.077787469077937654 1.9560212805345449 142 117 27 0.35901190470933425 98 1730
6031 -0.79007524731862155 0.02644216221930356 2.0066484727839899 240 195 70 0.36859597042518494 98 2680
6034 -0.19419061617836986 -0.48862865927096927 2.2840461089326523 98 82 65 0.68861111476069159 98 1819
6039 -1.3230782136885364 0.92571726219556749 2.8197101602282406 55 37 29 0.84756675213162613 98 751
6040 0.15645039837159733 -0.16639290164426898 1.8203521135943193 129 107 35 0.95527439540086123 98 652
6041 0.23426598029472315 -0.2295467305808348 1.7267791154775101 120 100 23 2.0292085896405694 98 3111
6042 -0.83965137594486861 0.31555215761970495 2.364275204845772 133 108 28 0.26403772931735736 98 1917
6043 -0.18546134652527826 0.47925636125384885 2.8584974501192675 60 70 98 0.2659758559647879 98 1792
6045 -1.0342083127252126 0.59664835663329496 2.7863172810847812 55 63 85 0.28680648436951872 83 1517
6054 -0.16321645609074356 0.43763736195081632 2.7346568446085859 28 31 44 0.97593436201248762 98 1108
6059 -0.87820814745978404 0.61368676160949087 2.778872940222628 2 2 2 1.5568877834317079 98 1519
6062 -1.1046083535441273 0.59269550520563585 2.7428237513433316 56 65 90 0.2566664612988242 98 1510
6070 -0.074381186719086501 0.51911110266189819 2.9103669596937838 5 7 12 0.19325763983308988 98 1706
6080 0.27402351902631295 0.040182836085564923 1.8411961062339524 96 73 13 0.65102371410753346 98 2373
6082 -1.158560042355913 -0.18381644001289935 2.0418176298217845 217 147 24 0.38797078908918509 98 2710
6086 0.28048232236517617 0.032780908969568485 1.8175481006724261 112 99 25 0.35800091519138599 98 2367
6087 0.24269990351713766 -0.1299366276381296 1.9443692423080117 114 94 27 1.49430048376306 98 1681
6088 -0.17574519478598558 -0.43212474771276033 2.0737681560610723 111 124 151 0.28680243479401785 98 1683
6091 -0.25801130361168473 0.14944259868249865 2.1865435715337496 91 109 145 0.34145050685078315 98 3082
6092 -0.36894399422287544 0.031587311304255808 2.4266422737115576 136 102 21 0.58438403879966361 98 2544
6093 -0.51822621265446556 -0.039996874784437746 2.4288971779506916 127 90 13 1.0554921432949236 98 2829
6094 -0.3182051271451582 0.1868976116011333 2.2100266697315312 57 66 88 0.67427871017364327 98 2342 48 2711
6095 -1.0904573375000561 -0.036357091064697991 2.0022667063574136 255 226 73 0.77674639720332084 98 2682 84 668 79 599
6098 0.19363701898541152 -0.030816314183325567 2.0697892684964017 8 10 16 0.77890843411854616 98 1800 48 2637
6099 -0.8429181611761748 -0.026091120516702301 1.9876934890376641 176 131 25 0.16384141740322608 98 2717
6102 -0.87443258158370429 0.0719017994960858 2.0013366254388179 221 173 44 0.35084563155255721 98 2752
6104 -1.0439431669058379 0.073065661193073783 1.9532916100316127 159 121 27 0.19128608883467055 98 2749
6108 -0.80556037896693478 0.016219363564495749 2.4565510283276626 255 209 57 0.35748909107226412 98 2532
6109 -0.25808254490310523 0.14964635022652972 2.1864818722206691 91 109 145 0.36721781989249763 98 2864
6111 0.10047941532267449 -0.16209163433253471 1.8205545678828796 80 95 130 0.21902495409931841 98 2504
6118 -0.3807729387063945 0.48599173299119919 2.7697931596127257 60 67 92 0.62805027583586781 98 2494
6120 -0.88894703945944098 0.55241832778050304 2.7491766495301873 58 67 90 0.23851478091899697 98 2422
6122 -0.34724450071514007 0.5939955638633122 2.9331828033327594 56 66 69 0.13965843269904504 98 3611
6124 -0.71476315374325683 0.36123148875504935 2.6701385355716631 7 7 4 0.085154614573552945 98 2153
6127 -1.3145630784566622 0.92912849804171582 2.7976997743989096 148 106 84 0.35185132508598793 98 1648
6129 -1.1588741547437038 0.91840602453824183 2.8074202628164473 61 38 28 0.31441708494488901 98 2238
6130 -1.0443475236927016 0.55121121363438985 2.6541000400605288 18 20 22 0.14431811904245229 98 2955
6131 -0.089551892474411421 0.5613874158844071 2.9110030196286583 15 14 15 0.14737019899679535 98 2101
6133 -0.067233248940822443 0.55234449029138033 2.8988542192413065 12 10 11 0.1974591249041725 98 1726
6134 -0.88894703945944098 0.55241832778050304 2.7491766495301873 58 67 90 0.23851478091899697 98 2249
6135 0.28144648774603914 0.74581227540347494 2.7687256378670302 103 74 64 1.125632640569409 98 2113
6138 -1.6749759254033698 -0.32308236397146511 3.2407330216112435 56 37 29 1.2196514166954873 98 1848
6139 -0.9166558942250338 0.31014103679146698 2.3598393548518515 209 172 56 0.54603445595486977 98 2964
6140 -0.11655731208642112 0.10541983402916077 2.7692840813684243 77 51 7 0.36591198828824084 98 2519
6145 -0.76617981619190023 0.10771833692940458 2.432088480021378 113 76 11 0.84300408510259905 98 3524
6146 -0.30496111541567456 0.093217066035586854 2.4883913425282151 125 95 22 0.75306919773392933 98 2220
6148 -0.80556037896693478 0.016219363564495749 2.4565510283276626 255 209 57 0.35748909107226412 98 2610
6150 -0.77103422767949015 0.054609571524501702 2.4487996355635775 246 189 49 0.59563500023405425 98 2619
6153 -1.2364366916367449 0.3129814604588948 2.382162132375325 113 102 30 0.55426618951470741 98 3263
6154 -0.00044101949019007686 0.031400197923641973 2.5522650450516742 112 89 24 0.84783841837141227 48 2854
6155 -0.94397753786399141 0.59861006665279792 2.8754576938985181 3 2 3 0.43835350724186445 98 2472
6157 -0.86007456778644309 0.55722547645611331 2.7431944502270236 59 70 96 0.58743124184506856 83 1342
6158 -0.11372264832246329 0.50406592840969522 2.9377056952006222 188 172 134 0.37820015724845568 98 2986
6169 -0.17816220535852426 -0.21146171553274501 2.3046806409220171 115 89 19 1.9624907871731743 48 3547
6170 0.33451302432131125 -0.0092152750403616673 1.6928589090222845 137 121 35 0.7049388251374421 48 3637
6171 -0.21247479284880982 -0.49493017452131299 2.2665523387145754 84 95 122 0.2943143606747628 98 2382
6175 -0.78424202422328038 -0.040854262846233315 2.4731761887151307 246 200 54 0.22030644037145358 98 3490
6181 -0.45161355320598884 0.4798997109832695 2.9061858518198895 4 3 3 2.5783748623495502 98 3244
6182 -0.85740275522652964 0.55944172735378073 2.7334752055477605 59 70 96 1.2276656572357429 98 3186 83 1513 83 3260
6183 -0.84695014212168762 0.55693688479345715 2.7404791719378236 5 4 7 0.10869386676713697 83 3307
