# 3D point list with one line of data per point:
#   POINT3D_ID, X, Y, Z, R, G, B, ERROR, TRACK[] as (IMAGE_ID, POINT2D_IDX)
# Number of points: 358, mean track length: 4.9571807502841985
6202 -1.0902445574255692 0.61466861568911613 2.8052665065810833 58 71 99 0.51500074735404111 93 2988 55 3786 42 2072 98 2216 17 2795
6203 -0.70705450838646366 0.29912871140271174 2.3866116324575595 70 77 93 0.52572944769216945 93 3803 55 3822 34 3487 98 3397
6204 -0.13796404495361009 -0.48988328707739986 2.0501545549206619 123 107 31 0.19697525724178652 93 2341 55 3885 95 3214
6206 -0.35715444311839839 0.12499144992395034 2.5251150165298188 118 88 20 0.63553198230393215 93 3816 55 3907 34 3510 42 2686 98 3526
6207 0.48356404257771807 -0.55664659200568256 3.3087785494845736 54 34 24 0.19895682255978131 86 4102 55 3918 83 3760 25 2857 62 2370 78 2468
6208 -1.4273489417218337 -0.10763739675834888 2.6253974190140399 115 124 153 0.34092082986963429 93 3206 55 3921 34 1418 42 1075
6209 -1.1313928119735652 0.35805404730340318 2.553755366687132 109 107 105 1.5800624270739927 93 1605 55 3935 95 3783 98 3326 17 3659 45 2778
6210 -1.0975223905018836 0.35944202562745403 2.6240375861844667 44 51 66 0.19406568688329945 93 3604 55 3978 34 3651 42 3491 98 3153
6211 -0.076817015796255272 0.1431564682210977 2.7962577184664594 60 31 2 0.15175012049508349 93 3908 55 4004 95 2774
6213 -0.26965149619100076 0.70307043585854756 2.872187128874311 76 54 42 0.41031974155282958 86 4210 55 4063 95 3695 17 2474
6214 -1.1316495322215716 0.36152876361485803 2.5080635825933015 46 32 7 1.9300456030299677 55 4069 34 1551 42 2288 55 1738 98 2051
6215 0.67654504446198405 0.46725940678871286 2.9854901814762194 223 209 172 0.34267428335365024 86 3893 98 3336
6216 -0.57924639721039872 -0.02045921465493962 2.4081956071463573 21 17 6 0.80541761836748726 64 67 22 87 48 99 55 108 23 82 94 87 99 93 93 103 17 105 83 154 16 102 47 150 62 158
6217 -0.36852066481023804 -0.33555658652268366 2.4014325841346178 49 47 53 1.7431027126241743 64 145 22 310 55 127 48 468 86 380 99 411 93 149 95 154 17 94 45 166 67 192
6218 -1.4935430558517191 0.81466876304894587 2.8644493059217031 135 136 127 1.2715476975373432 64 310 29 347 65 368 22 384 51 378 96 548 88 501 44 520 21 610 55 393 23 641 94 568 86 424 99 457 93 346 48 186 95 284 17 280 45 203 67 152 84 220 69 281
6219 0.55098753868617023 0.64591047600447693 2.9021238617740632 103 72 60 1.6909922101042631 29 564 64 461 65 580 55 474 94 225 86 213 99 235 93 434 45 646 52 225
6221 -0.75120758054572556 0.15961511591591265 2.4308936195050257 52 30 3 1.2454295794702273 64 206 48 384 55 509 94 2961 86 1823 99 1467 93 538 34 1279 42 1341 98 679 95 214 17 215 45 184
6222 -0.13785955925310406 0.71063569550991579 2.8340790772345597 66 46 37 1.4270439340160097 48 141 93 381 55 568 86 2004 99 2918 98 238 95 169 17 353 45 733 27 530 56 988 77 2380 80 848
6223 -1.0738217259177063 -0.024231094176355002 1.9847641751374312 255 234 91 0.5395395648392679 64 508 48 741 88 537 55 1930 23 1125 86 2390 99 1711 93 2456 34 3192 42 2940
6224 -0.77373741045944056 0.63979776705435187 2.9156364878994094 2 2 3 0.29509181208796159 23 2543 94 2335 55 2366 86 2267 99 2290
6225 -0.86989746776311339 0.68815165079437157 2.899577362714405 3 5 8 0.075159476770921149 64 2110 48 2261 55 2354 23 1586 86 1259 99 1427 93 2199
6227 -0.19868853968029712 0.47277881147214562 2.8028296981520406 62 69 93 0.30056967614224522 23 2311 94 1220 55 1097 86 1322 99 1126 93 867 34 993 42 1849 98 1931 95 2077 17 2147 45 2045 14 672
6229 0.22879634935300938 0.69588900007975041 2.851400776511527 35 25 23 0.71791462457049415 23 1645 94 1323 86 1343 99 1447 93 1089 55 1356 96 2017 88 2094 44 2046 48 1412 34 2121 42 2112 98 1161 95 1581 17 1452 45 1486 64 1438
6230 -1.3113884856366622 0.87072255461762138 2.8340559393147204 159 158 144 0.87577687322971842 44 1585 92 959 23 654 64 282 48 674 94 394 55 391 86 1317 99 1380 93 563 98 221 95 499 17 292 45 256 67 302 84 235 8 194 36 304 79 320 54 268 9 277 40 303 59 279 7 289 82 303 69 292 66 430 71 1225 41 490
6232 -0.40168820984521314 0.21458987394421436 2.679818979621849 88 70 15 0.71529594282305398 93 35 34 37 42 35
6233 -1.4134630328990625 0.42310698231634836 2.6267166089869787 66 78 109 1.0245060334398459 93 203 55 63
6234 0.11493916231623844 -0.16128053202157663 1.8193839342721736 10 11 16 0.46225792105916025 93 3891 55 2549 34 2891 42 3595 95 4041 45 3369 27 2692
6237 -0.97035837491580845 0.023947118721071494 2.3493696456595656 13 10 11 0.37048450917606768 93 0 47 0
6238 0.29980005536648635 -0.19167215894726977 1.8374853766383927 121 105 28 0.59997971116364068 34 3 42 3
6240 -0.08369384626911075 -0.49290597304324418 1.8996074992374139 0 0 0 1.9953047520631069 42 23 98 12 95 19 67 29
6241 -1.542743260077122 -0.25502651481129962 2.9780843911977599 0 0 0 0.80915164613842405 34 17 42 19
6242 0.15345982263346861 0.41722196695752906 3.0195439108492979 223 208 170 1.1178716417636971 93 10 34 19 42 24
6243 -0.58359206355467508 0.19144765172043882 2.3699341717277478 130 95 19 2.0407748847641378 94 21 34 30 42 33 83 32 52 30 16 27 10 34 25 36
6244 -0.41225114091488291 0.18627993192757925 2.5166450360788333 30 23 16 2.4224486103304308 93 20 34 32 25 35 78 27
6245 -0.19490277556564251 0.4317292036624642 2.7341970723796072 58 66 91 1.2072161058530735 93 37 34 35 42 40
6246 0.15401462041642386 0.080740111279404059 2.8096359998394087 205 192 159 2.5184870109172484 93 65 34 60
6247 -1.4605553477397526 -0.00049348903009962392 3.0244607817310172 227 211 170 1.0033981888850116 34 62 42 62
6249 -1.2981850738938241 0.4817579883994727 2.7710807317832242 82 84 76 2.1541991190629415 93 72 34 79 42 72
6250 -1.0121003380018521 0.44867182997514815 2.5593019453210717 2 2 2 1.3575002652564607 99 214 34 84 42 116 45 170
6251 -0.16088085106089114 0.084785630108569696 2.1798204929752427 11 10 13 1.0637630960583511 93 56 34 88 42 84
6252 0.034248333159840112 0.12911035381797437 2.778786818316116 66 62 66 1.1942300521600135 55 79 34 95 42 106 98 95 95 82 17 111 45 93
6253 0.10919355293199301 -0.022679358956856223 2.3377170582700506 106 91 26 1.2884280036922924 55 361 34 114 42 122
6254 -1.1783021478757942 0.083016042431876672 2.1019925972664208 104 91 26 0.50839148408896584 34 115 42 123
6255 -1.1053180789241135 0.30251970901310238 2.5481026150527035 57 49 45 0.5084059612103724 55 107 34 132
6256 -0.94908564611238533 0.74952127323212847 2.890805465432654 65 45 37 1.4216559800540536 34 141 77 81 10 126
6257 0.78344768732907344 0.013273402398084102 2.0050949817367814 241 190 59 1.562315592229357 34 157 42 76 56 188 47 88
6258 -0.13282178480160728 0.10038327244551612 2.4135185831173871 108 88 23 0.65864388772659599 93 225 34 182 42 228
6259 -0.069061788340034486 0.0051787256582720743 2.2592302796095742 155 127 53 0.14785251280389522 55 177 34 188 42 164
6260 -0.046705697034662229 0.076728575017472017 2.6447635417785627 107 87 23 0.22075173784689381 55 243 34 209 42 234
6261 -1.5776697649783804 0.34478611586297381 3.0118332459230737 135 134 124 1.2268987881918345 93 222 34 216 42 125 98 148 95 165 17 239 45 165 67 160 84 230 8 129 36 193 22 305 79 95 54 200 40 326 59 66 7 58
6262 -0.46423878853027728 0.43880803071235208 2.8137658729140358 77 67 17 0.3228026657713296 86 231 34 221 42 198
6263 -0.62813200826450888 -0.041894936906757836 2.377189946301014 233 194 70 2.3489789867015842 93 230 34 250 42 1736 98 915
6264 -0.8027397596446435 0.080958772465928086 2.0541847523142018 23 23 33 0.22181235105391339 55 205 34 258 42 364 98 412 95 293 17 208
6265 -0.29717132972711929 0.15584927172320587 2.6374951937926649 52 49 58 1.0637776357481923 93 450 34 267 42 249
6266 -0.99585385414618866 0.33928703261214305 2.3594322434029045 154 129 40 0.27069159919473956 55 317 34 269 42 254 98 260 95 273 45 175 48 136
6267 -0.35702419418946946 0.10646960869394592 2.3367394504311898 164 134 57 2.2638527845633885 94 429 98 195 95 201 17 186
6268 0.31281258870645795 -0.20910383312558486 1.75062865727094 149 132 50 0.38856623987875527 93 531 34 295 42 243
6269 -1.1010076404072251 -0.084453686867104361 2.0084422553459009 168 132 37 0.85514375336111503 93 285 34 326 42 733 98 192 95 161
6270 -1.4054878071944528 0.52989707112992779 2.9615288804656341 116 118 108 0.7098043881241054 93 428 34 343 95 240
6271 -0.73714976696817647 0.66324153918512896 2.9042366572662557 5 6 8 0.15636924310227029 55 405 34 361 42 439 98 487 95 484 17 527 45 818 38 739
6272 -0.37183087075519577 -0.32981950969159363 2.4071214737534321 27 29 37 0.064155931623358267 55 368 34 378 17 501
6273 -0.95049274357798264 0.57012060877365311 2.7407406829770298 59 67 91 0.32412154455650333 55 443 34 390 42 385 77 407
6274 -0.041286084901718943 0.45172416517294506 2.8354106084135111 2 3 3 0.31841687831921589 93 259 34 397 42 291 98 334 95 554
6275 -1.5536001952011769 -0.22528204763749921 3.2302119919985648 222 208 171 0.98093962289268755 55 247 34 404 42 290 95 156 98 244 38 488
6276 0.042919183602169161 0.45322704780288864 2.7973891694910709 223 205 164 2.060097984519079 93 200 34 405 42 1251 98 500
6277 -0.25311865758866425 0.18291918169523483 2.7585554254478395 8 5 3 0.4661485760309203 93 279 34 417
6278 -0.81580002053635803 0.081744493901352716 2.446099104345965 230 184 50 0.55137880610586743 55 292 34 447 42 789 98 613 95 599 17 437
6279 -0.9161005088338573 -0.012952726188500352 2.4696980588291297 255 215 71 0.13783560921777507 93 257 34 455 42 1201
6280 -0.34082584833383661 0.19998746362052944 2.2105687852393698 77 67 27 0.46331398887908276 55 423 34 468 42 347
6281 -0.19081126208150997 0.27995562574612204 2.4795832524308525 21 27 41 0.076875392055673231 55 1431 34 483 42 549
6282 0.22535111566207849 -0.21381401307950937 1.8692018540558004 128 103 34 1.6078511463607856 55 419 34 493 42 738
6283 0.14378945727910322 -0.13697892824965588 2.0401966457186735 101 80 17 0.34722200782053614 55 889 34 496 42 729
6284 -0.12557352565209323 -0.44341094892895977 2.1785063645976748 23 23 29 0.60623110621139176 55 558 34 498 42 721 98 814 95 928 17 1222 45 1275 38 822 27 810 77 602 56 597
6285 0.20823680664059663 -0.15909818612007651 1.9068844101344242 121 102 33 1.1253971803699778 55 330 34 503 42 742
6287 0.22240106234038617 0.48595028879000329 2.9752086705410559 221 206 171 0.53554282648231999 55 500 34 542 42 475 98 553 95 355 17 374
6288 0.086495722348222392 0.49170799672979748 2.9872766723387887 219 204 168 0.3773540159665309 55 495 34 579 42 645
6289 -0.63868241596783726 0.55748625609683589 2.7849082416806987 47 37 29 1.7184920529103724 93 587 34 580 42 640
6291 0.9123990941249972 0.49634570454260912 2.9263786831252943 234 219 183 1.3938757174715819 55 608 34 618 25 596
6292 -1.2322082332285489 0.29007301602347801 2.3428357041560863 152 102 25 0.39427996765753964 55 320 34 658 42 380
6293 -1.2137328526572653 0.29448137146537351 2.2902311586840947 18 19 26 0.17943357735307544 55 758 34 668 42 274
6294 -0.2696290418385669 0.47951829982477046 2.8360193416766339 63 69 92 0.98791611531115964 86 589 34 672 42 374 83 704 52 954 10 367 25 422 47 340 62 343 78 360 43 995 20 1286
6295 0.21373010197250589 -0.10048383007378567 1.9347918227534986 23 23 26 1.2083963353046774 55 420 34 687 42 826 17 885 67 947
6297 -0.94214163678322915 0.55041187820468196 2.7080475784870908 18 24 35 0.13306766296661973 93 894 34 698 42 614
6298 0.21459289849241134 -0.1055382240772425 1.9396660082447827 23 23 26 0.91372570686522936 55 327 34 716 42 849 17 855
6300 -0.17797387373860557 0.1091711400280295 2.4028554265776654 88 52 5 0.330784490893689 55 521 34 740 42 761 95 1551 98 938 17 1098
6301 -1.4589251218285966 0.83991786905375265 2.8646619233309862 101 97 84 0.47286774590319647 55 770 34 794 42 1204 98 749
6302 -0.30468704642995803 0.26514627213191999 2.4659407483268327 6 7 9 0.47590326243772169 93 748 34 825 78 1053
6304 0.44215457028930799 0.030972233898842849 3.1050408173989594 236 219 180 0.52589062947732856 55 815 34 854 42 770 98 1087 95 692 45 712 64 641
6305 0.2672310643941524 0.016996228107825792 1.8405394093329286 127 114 35 0.2418444342161262 55 996 34 914 42 825 98 654
6306 -0.19935492951395009 0.47264024316798753 2.8007206009110144 62 69 92 0.43036109354465635 55 1096 34 992 42 1850 98 1903 95 2078 17 2160 45 2292 38 2393 77 1425 27 2606
6308 -0.47116061894893646 0.33691220074466582 2.8476388865716413 78 62 14 2.4391331846031528 94 1281 34 1033 42 713
6309 -1.2554960906263619 0.92913455182778404 2.7997567545592217 58 39 32 0.35447342452101838 34 1037 42 605 55 1153
6311 0.44495707336418105 0.025918829746704126 3.1117167855638543 236 219 180 0.54411641940998101 55 674 34 1092 42 1271 98 1335 48 650 95 647
6312 0.058967420099269363 0.40916579035881545 2.78737017163761 109 98 76 1.7356989885902361 93 482 34 1119
6314 -1.6643892140316705 -0.32971424750855433 3.2245520371309864 153 107 83 0.1868960712462763 55 1202 34 1131 42 1233 98 778 38 533
6315 -0.02989598519899582 0.55305541939063041 2.8722073218297131 213 196 159 0.29319719045025983 34 1164 42 2098 78 1151
6316 -0.40780032456734228 0.48885869946351873 2.7661285197658083 7 7 8 0.075748253141117231 93 1141 34 1198 98 1225
6317 0.54031969974032856 -0.41307843606206235 3.8698106849075518 106 93 69 1.0105408458795426 64 1414 34 1200
6318 -0.94792731732118607 0.57792816807600922 2.7716134460296091 21 26 37 0.38248225447908829 55 1016 34 1247 42 945 98 891 95 1467 17 1071 64 2709
6319 -1.4958410873799983 0.2845316385826549 3.0267081717749464 91 92 80 0.1179566021640716 93 2114 34 1252 42 1094
6320 -1.0535676973868866 0.59893485943208424 2.804770017341526 26 32 44 0.56564272177188413 55 1361 93 1059 34 1265 42 676 98 1299 95 1480 17 2330 45 2303 38 2183
6321 -0.72669145698759907 0.18645198650857192 2.3787129068274147 114 96 25 1.1984069185624697 93 1860 34 1278 42 573
6322 -0.30465314937144139 0.26314744595520245 2.4675882449050097 6 7 9 0.41942501328926357 93 805 34 1286 25 1969
6323 -0.22004280442797219 0.28378036371690823 2.4835169966877912 63 72 96 0.13725736916801948 93 746 34 1293 42 547
6324 0.92987527652498103 -0.15936334400376298 3.1725565802543167 0 0 0 1.5865019382364589 55 1463 34 1307 17 1522 38 227
6325 -0.99152968776395622 0.55372083229036351 2.6887766206934351 56 64 88 0.28529774414474335 55 2143 34 1329 95 2101
6326 0.52784681473040096 -0.64592664391709975 3.3200952113924229 156 109 85 0.092990731742303795 55 1510 34 1342
6327 -0.57825021332475501 0.439027190591401 2.7491782389587445 80 63 14 0.72471580525400237 86 2863 34 1345 42 2003
6328 -0.24873978732353408 0.15977468155746544 2.3885472564266474 131 96 43 0.21193945497005739 55 870 34 1346 42 1662 98 1607 95 2472 17 2672
6329 -0.76937867174918972 0.53042650581795692 2.8577494572292732 58 56 49 2.1212144346077455 99 2215 98 1280 95 1496
6330 -0.21605128765914897 0.43784565533784492 2.7199955225423169 59 67 90 0.65092134102065535 94 2202 34 1383 42 1994 98 2043 95 1714 17 2916 39 2963 16 1375 10 1116 52 2105 61 2115 14 1291 20 1812 15 2097 76 2069 43 1626
6331 -0.14566345695448429 0.3572497191606252 2.7397097030323501 36 38 51 1.5909499998716377 93 1220 34 1398 42 2719 56 1030
6333 0.038798362308672923 0.076733990278378142 2.6969361859583265 29 24 31 0.43182244973212819 93 1763 34 1437 55 3830 42 1477 95 3043
6334 0.61152781693749492 -0.39339991695059312 3.2866034415446737 229 216 178 0.10669987174486222 93 1529 34 1468 42 1514
6335 0.49459918620766458 -0.35603354819169097 3.2787085771308102 124 108 79 0.24108942200998884 93 1544 34 1489 42 1490
6336 0.45743276000851457 -0.31264509786038241 3.2591360632282234 235 219 181 0.1589707305471382 55 1479 34 1499 42 1500
6337 -0.17947525310758175 -0.44601590042857214 2.1025126058985086 102 77 35 1.2880630896958216 55 1770 34 1577 42 1547 98 1255 17 1214 77 594 56 588 39 417
6338 -0.075191946270715765 0.053922772494283087 1.9809468636970504 85 98 127 0.25433723867365771 55 1919 34 1585 42 1560 93 1662
6339 0.13815993698484511 -0.18120537648048718 2.1294420843031303 0 0 0 0.48960220916568092 55 602 34 1593 42 903
6341 -1.5497312830875358 -0.26391763861165896 3.2530649701988432 220 203 164 0.17047571133987011 55 1702 34 1624 42 2135 98 1818 95 2217
6344 -0.29442066437922648 0.17026128414869643 2.4161814092087961 82 61 10 0.61744982776165169 55 3868 34 1686 42 1654 98 1423 95 1647 17 3134 45 1417 38 714
6345 -0.81130914540208909 0.039832715759267348 2.4585746658795946 166 110 22 0.27159889515784735 55 2029 34 1687 42 1715 98 1824 95 2124 17 1296
6346 -0.86763202100430981 -0.03075803779198015 1.9942808024553946 168 127 26 0.57653836288121563 55 1937 34 1721 42 1700 98 962 95 1063 17 1130 45 995 67 999
6347 -0.069819667525106266 0.064839360951327876 1.987761061040598 62 69 88 0.14188582506391118 55 2616 34 1722 42 2592 93 2422
6348 -0.26227909546071776 0.084752372124806408 2.180518041728682 166 148 62 0.16107941446584417 93 3484 34 1736 42 1702
6349 0.45743276000851457 -0.31264509786038241 3.2591360632282234 235 219 181 0.1589707305471382 55 915 34 1785 42 1894
6350 0.49459918620766458 -0.35603354819169097 3.2787085771308102 124 108 79 0.24108942200998884 93 1885 34 1794 42 1902
6351 -0.074570671785541026 0.052411680372854 1.9822485681639297 85 98 127 0.31312289921264203 55 1985 34 1824 42 1749 98 1816 95 958 17 1904 45 1213
6352 -0.43407599454842699 0.46124451782135067 2.7752663935519966 22 24 29 0.22997553521236527 55 3671 34 1869 42 2569
6353 -1.0657480538777262 0.60108551801222998 2.7827070563710832 57 64 86 0.19318004434381714 55 2798 34 1882 95 2683 17 3421 45 3455
6355 -0.28241101729983753 0.44557815503464326 2.7162908734209958 61 65 87 0.13966141778379162 93 2053 34 1935 83 1351 56 2360 52 2274 16 1403 10 1176
6356 -1.5501403442347144 -0.081879968090485866 3.1870534096549918 152 148 135 0.26969626489240195 55 2285 34 1965 42 2526
6357 -0.051850867538566291 0.50912782386146016 2.88596610986166 3 4 7 0.35111157040267515 34 1979 42 1956 38 1396 98 1603 27 1664
6358 0.84374245464477249 0.48020336602309072 2.9853596850565056 127 115 91 0.29752694257477114 93 2157 34 1982 42 1949
6359 -0.25528045663624238 0.48470188631270289 2.8576443608210482 60 70 98 0.13429528697101834 93 2060 34 1990 98 1761 95 2199
6360 -1.573456228112575 -0.10983774635764454 3.1942832042233067 117 113 96 0.29037018042499163 55 2294 34 2021 42 1953 98 1162 95 1406 17 1329 45 1627 38 747 67 1387
6361 -1.5632958767413574 -0.13482964400945044 3.1959325863644223 227 214 180 0.11852899877423868 55 1533 34 2034 42 1929 98 1181 95 1380 17 1336 45 632
6362 -1.457677386881282 0.41150629667035066 2.9982016049062805 120 122 114 0.16928877686296875 93 2266 34 2047 42 2060
6363 -1.3864631331535202 0.39911153320167392 3.0039874963696276 112 114 108 0.12565333995624231 93 2273 34 2051 42 2068
6364 -1.3242198116618367 0.38485743452031662 3.0149569924132433 94 96 88 1.1880587013468107 55 2343 34 2053 42 2073 98 1297 95 757 17 812 45 821 27 590 38 779 59 628 9 704 7 550 80 556 2 479 66 328 41 726
6365 -1.4413321118005138 0.49496404945128875 2.9829188555785109 74 70 57 0.4206188153701122 55 1163 34 2082 42 1796 98 1246 95 1524 17 1065 45 848 38 709
6366 -1.5306634443260738 0.085622653561157086 3.1321565066667634 95 95 83 0.051240008038754115 93 2125 34 2107 42 1148
6367 0.20617835675930801 -0.20654046957608038 2.0165732353039005 137 119 39 1.3415210488802807 34 2151 42 1542 95 1163 17 1221
6368 -0.21842484269433574 -0.54053322552377392 2.2788611823354117 135 142 162 1.0020400188967147 55 2476 34 2160 98 2380 95 2420 17 2642 45 2474 27 2786 7 1554 41 1513
6369 -0.33023675981376355 -0.47701583996084224 2.3616227370927736 130 140 164 0.29096899502878376 99 2557 34 2179 98 2735 38 2726
6370 -0.23664838831949542 -0.51218995722554472 2.3053198180098096 9 8 7 0.59777266523558881 99 3671 34 2182
6371 0.17467191938051482 -0.12824905644058535 1.7858970283913689 119 92 35 0.31431969199998383 93 2347 34 2203 42 3007
6372 -0.010659805771371669 -0.11179489460324338 1.9116589684539578 88 101 132 0.12304561730893947 93 2682 34 2231 42 2202
6373 -0.94567667405608924 0.099567453640977827 2.3002826777568979 148 151 167 1.1019411554307821 93 3164 34 2278 42 2241
6374 -0.76305272592289231 0.046590913207069429 2.0680253285870944 228 176 45 0.57928858441348652 55 1958 34 2291 42 3102 95 3246
6375 -0.11225812483462105 0.10964760645809732 2.0564054983364732 77 94 130 0.089709074513034781 55 2633 34 2297 42 2260
6376 -0.29360305425714905 0.15160039517094492 2.1892284258297758 70 81 87 0.44111351316725644 93 1639 34 2308 42 2268 98 1630
6377 -0.075721350065670656 0.0096491153633060482 2.2836721038900789 110 83 15 0.43712077047531661 93 2542 34 2314 42 2273
6378 -1.1237674052044146 0.37256747222648362 2.6126774782577775 50 47 60 0.28906074390398345 55 3355 34 2367 42 2903
6379 0.77901089875378748 0.12782785000015823 3.1030769248054533 229 213 174 0.18077888795117938 55 2153 34 2370
6380 0.15484736780258543 -0.24330270542223426 1.759186899624823 123 138 171 1.3562326395170843 55 2071 34 2377 42 2390 95 1180 98 582 17 865 45 403 38 837 59 410 7 401 9 344 41 619
6381 -0.084145020243699825 0.54317920455206536 2.8185065458674172 207 191 153 1.8754054502207362 48 3000 34 2379 42 3038 98 3127
6382 -1.0972189330734359 0.35990605418677246 2.5966442846659867 59 62 75 0.39027876622700192 93 4027 34 2417 98 3347 95 3573 17 2285 38 3163 67 2808
6383 0.48497909211224605 0.64428310581102799 2.8899289983933603 26 19 17 1.0599665744321729 93 2359 34 2420 42 2421 83 3463 16 2128 25 2610 47 2051
6384 -0.036310420313293262 -0.054399064693055589 1.8976504924316557 17 15 16 0.23573933001784794 55 2471 34 2421 42 2201
6385 -0.34947241855617089 0.60832216542879469 2.9318824323774337 5 7 8 0.13830174325986874 93 3751 34 2425 42 3319
6387 0.77901089875378748 0.12782785000015823 3.1030769248054533 229 213 174 0.18077888795117938 55 1547 34 2445
6389 -1.0457530951938376 0.55877336152265122 2.6448651420905396 19 21 26 0.4621659963957504 55 2765 34 2472 98 3458 14 2288
6390 -0.35382761471419161 0.47697481870871627 2.8541534208989123 57 67 91 0.031688139961823479 93 3569 34 2473 42 2304
6391 -0.11777954006752339 0.57097209230854651 2.9206998825870363 8 7 7 0.15784239847446985 55 2800 34 2498 42 1867 98 1895 95 2107
6392 -0.85653961928694922 0.54905103141234746 2.7794097035763214 41 25 13 1.5566572893223236 93 3000 34 2503 98 2260
6393 -1.022137235399978 0.54523922811726422 2.6960666713072636 57 67 92 0.91746004360834488 55 2975 34 2510 42 1831 34 1849
6395 -1.6415433739825223 -0.22585190569375291 3.2269181581124635 135 121 89 0.051867190239066795 55 3244 34 2517 42 2445
6396 -1.5739971414987701 -0.31943548180388565 3.2324395820193348 68 40 25 0.32800004904124669 55 2817 34 2561 42 2695 78 2496
6397 -1.608934745125931 -0.32319175616030266 3.2371976914432352 58 38 29 1.0034151056744356 55 3147 34 2570 42 2694 98 1847 95 1718 17 1849 45 2257 38 1311 27 1028 8 1332 79 1280 9 705 59 657 7 580 77 1519 56 1440 39 1493 80 947 2 942 66 598 53 661 1 638 68 660 31 510
6398 -0.12379480384702521 0.51472467957105517 2.9393145778956988 3 4 6 0.50406886414974394 55 3594 34 2584
6399 -0.35151866737921045 0.43718929844582299 2.7078268031502066 26 31 44 0.48268140474295568 55 3646 34 2585 42 2697
6400 -1.1049225308924273 0.3909738927740824 2.6089584103187633 4 4 7 0.18869719316384104 93 1432 34 2598 42 3389
6401 -0.87930680570397324 0.52809983619175305 2.7056587464773645 55 61 83 0.1157403331507552 93 2659 34 2604 98 3212
6402 0.54037748523743934 0.085136873766693502 3.1570204713437349 234 218 180 3.3794599464588102 55 2936 98 3683 38 3436
6403 -1.1059918680466616 0.38530089273676565 2.7869849407149925 42 41 52 0.39019633655479985 99 1582 42 1963
6404 -1.548295778302514 -0.11101257594842495 3.1933076396390292 125 110 80 0.24528520555367547 55 3970 34 2661 42 2519 98 2128 95 3607 17 3749 38 2614 27 3077
6406 0.5639836490901915 -0.61573792802432536 3.3327964456028925 124 90 74 1.4891459158775002 55 854 34 2710 42 1471 42 2609
6407 -1.3521987023539399 -0.11042779235657035 2.5513278136401536 111 82 17 0.67698480184532106 55 3505 34 2744 42 788 98 2008 95 2562
6408 -0.034741180421147252 0.038663968278669081 2.576421395532916 102 80 20 0.28934535601492734 48 2728 34 2747 42 2647 98 2601 95 2476 17 2668
6409 -0.95920504925885264 0.044285197067660473 2.4504461082180851 255 215 59 0.27582391592838384 93 3193 34 2750 42 3453
6410 -1.104508358139868 -0.023440271331530135 2.5709044942757511 118 86 17 0.062383598105590105 93 1811 34 2772 42 1359
6411 -0.92332329206455566 0.58754196218798138 2.8633273673939867 3 3 3 0.20839933338302466 55 3772 34 2789 98 2280 95 3721 17 3511
6412 -0.57264005387752437 0.67604418610246753 2.9274200393750887 63 71 69 0.52911583533978768 55 2786 93 2826 34 2796 42 2494 95 2904 98 3456 17 3615 45 3669 67 3345
6414 -0.94429061249946389 0.60006239281886753 2.8754992767187693 1 1 2 0.66043938695646121 86 3869 34 2809 42 2450 98 2232 95 2965 17 2757 77 2018 56 1903 14 3452
6415 -1.0757898871618585 0.6219407389341407 2.8434906844560612 59 69 93 0.47697667520098785 86 2339 34 2818 42 2062
6417 -0.81493185645220612 0.37449803941307847 2.6515855305019209 5 4 3 0.25873556246776447 93 2890 34 2845 42 2708 83 2596 78 1839 25 2656
6418 0.84990671813871177 -0.09133702090655782 3.1496804559496812 237 219 182 0.25309308780659184 55 3124 34 2860 98 2635 95 1759 17 1997 45 1964
6419 -0.59543938076106706 -0.089309975764539196 2.1948766153166721 21 17 12 0.39480675297059892 99 3415 34 2910 42 3095
6420 -0.53360237174974334 -0.031589091284822013 2.447726780089357 184 147 39 0.40715936792164137 55 2578 34 2942 42 3572
6421 -0.20906911445046705 0.42521024086710774 2.6953131342895764 58 62 81 0.1448833294509447 55 2908 34 2965 98 3361
6422 -0.073235407068915376 0.11788989042606104 2.7271132954030266 115 92 22 0.14786577013707028 93 3925 34 2980 42 3531
6424 0.32994211766475362 -0.15652827932856897 1.6863695229776405 143 130 50 0.15412811272630722 55 3436 34 3044
6426 0.18626686533349901 -0.17871105109498969 1.9063128709181711 134 111 36 1.5542927352959428 34 3122 98 3087 95 3280
6428 -0.027961012185186131 -0.38431913156796621 2.3110506556249635 115 91 20 1.3784747547793084 86 1691 34 3186 42 2937
6429 -0.095117590733787949 0.10606400702451785 2.0585881701202364 12 12 16 0.36436943977948727 55 3532 34 3205 78 1963
6430 -0.12570504025215828 0.079256712540230589 2.0575421941005239 116 126 158 0.44243440556776287 55 3533 34 3213 38 2720
6431 -0.78856086011075688 0.027092244818430356 2.0046309572015391 245 199 81 0.42188188687457601 55 1981 34 3221 98 2490
6434 -0.95111910135160871 0.55504894340519217 2.6839124974862307 57 64 87 0.21051827063839104 55 3567 34 3285 42 3570
6435 -0.17667435530477443 0.4512129301020909 2.7794012567653401 31 37 53 0.19772116046586952 86 3665 34 3299 83 3501
6436 -1.6122192209722612 -0.26855691038614032 3.2513697191102899 193 183 150 0.45854386611082054 55 3940 34 3313 98 2170 95 3917 17 3693 38 3136 67 2098 51 1806 84 1997 8 1802 36 1731 79 1713 54 1982 9 1768 40 2257 59 1953 7 1938 35 2135 3 2198 81 2396 26 1889 49 2878 46 3741 33 3163
6437 -1.6079035001448148 -0.28022690870436212 3.2475148825233657 64 45 32 0.11150688175836376 55 3945 34 3320
6438 -0.50613725848051017 0.67962398977952698 2.9116301442671215 60 68 66 0.17679654047435789 55 2916 34 3374 42 3225
6439 -1.1928412886698545 0.6168470762565591 2.774404576895622 41 44 61 0.18667060492673682 93 3713 34 3403
6440 0.34397292101871701 -0.020850265787754112 1.6574888925881397 129 114 45 0.57534594874200595 93 3394 34 3407 42 2387 98 1658 95 1856 17 2619 38 1693 27 1413 77 1768 56 1637 39 1652 2 1646
6441 -0.135342551343932 0.51557855896373228 2.9519013643470826 175 156 122 0.31858493673394728 55 3771 34 3419 95 2307 17 2159 45 2053 98 2427 42 3033
6442 -0.97500548952066657 0.59152257700217592 2.8311308701615459 44 49 66 0.29403266947135331 93 3724 34 3458 42 3260
6443 -0.9069471228142062 0.1625326983302206 2.4359350128731911 103 86 22 1.0044039067815129 93 3825 34 3509 95 2708
6444 -0.3300456057751594 0.15828413179805145 2.5011446682821212 121 98 25 0.88670401872498916 93 3815 34 3512 42 3368 98 3687 45 2389 48 4021
6445 0.5929429349138654 -0.45457212048388801 3.2944804653603739 106 97 78 0.5867132857921542 94 3895 34 3524 16 3334 52 3438 10 2933
6446 0.83465280198100134 -0.42715949362114713 3.2934891999821287 231 216 176 0.11551749724762508 55 3255 34 3527
6447 0.74524396187725517 -0.56058859266822114 3.3474915657217732 229 213 175 0.26720944280802283 55 3240 93 3975 34 3540 17 2724
6448 -0.52240518963956484 0.057562460096893621 2.4204573304036376 143 114 34 0.1129655395986426 86 4028 34 3562 42 3577
6449 -0.56364884073035271 0.0130787061063934 2.4264031722638926 41 32 4 0.64989357054773 55 2586 34 3572 42 2783 95 2440
6450 -0.28854467510931731 0.13495866367272738 2.4702205871066396 119 92 22 0.27483494332543523 55 3922 34 3588 42 2645 98 2613 95 3821 17 3811 45 2513
6451 -0.2976104514464516 0.12270302307651876 2.4741701165644687 89 69 11 0.50099476625775397 55 3864 34 3590 98 3469 95 3818 17 3829
6452 -0.81747474179215984 0.024034267581971542 2.4567437056024333 255 210 56 0.21466997229171611 93 3143 34 3602 42 3413
6453 -0.69426888104260165 0.33912532335241363 2.6099702948725043 60 43 5 0.3565889524940602 93 3935 34 3630 42 3464
6454 -1.1015710711553921 0.33197873456208965 2.5853818480446225 72 71 80 0.39848351342968663 93 3928 34 3647 42 3513
6455 -0.64056415780822307 0.36896790439228266 2.5292317051382733 102 96 29 0.34997840042792383 55 3145 34 3666 98 2025 17 3670
6457 -0.81736842570616575 -0.039484270317016464 2.469747060709524 250 203 55 0.050657282264652014 55 2580 34 3722 42 3574
6458 -0.32167001568697429 0.11295808338086241 2.8341802901066657 84 71 16 1.7772703552412989 93 3958 34 3745 42 3474
6459 0.15102981914945623 -0.17691396990337716 1.7567959569700247 55 66 92 0.4317148361604401 48 3670 93 3287 55 3432 34 3101 94 3324 86 3468 99 4279 42 2971 95 3350 45 3346 77 2772
6460 -1.0532780365883354 0.59942516739774088 2.8017695791036776 22 24 34 0.25064410652007563 48 2537 86 1445 99 1061 55 1024 34 919 23 2313 94 1496 93 997 95 1007 45 2109
6461 -1.5102121863325844 0.36437207995996135 2.9988826170351603 140 140 131 0.93101244773523117 65 1181 48 958 86 1192 99 1276 93 581 55 678 34 516 29 1479 64 1433 65 1902 48 2802 42 673 98 704 95 770 17 814 45 876 38 753 67 735 27 596 84 1357 8 741 79 1282 54 1332 9 1343 59 1233 7 840 77 417 56 518 80 868 39 818 2 826 66 997 1 819 31 1147
6462 0.026672690546017199 -0.48033226811725643 2.0953519385067572 7 9 12 1.9874648391436054 48 21 34 47 86 26 99 17 55 21 42 48 47 26
6463 -0.41679738913365272 0.69749347347932433 2.8984635290934562 88 96 95 1.4720566827279453 93 66 55 74 34 64 86 66 99 70 42 67 98 61 95 55 17 38 45 48 38 55 27 36 39 51 80 33 16 112
6464 -0.010947325520432413 0.57852492474814432 2.8597862603831636 104 92 68 1.7423994076953628 34 929 42 950 78 1453 45 1321
6465 -0.8468817110424911 0.036509892023549123 2.9465395957258878 58 44 6 2.5177524513115843 93 3943 34 3609
6466 -1.382215454587338 0.80010012610789494 2.8225551194906737 115 116 106 1.6194734303334917 34 7 42 8 98 6 95 5 45 2 17 5
6468 -1.1773969895216494 0.36114644689577607 2.8327738927593118 3 4 6 0.88659655199285792 34 11 55 9 42 10
6469 -0.99812085686529983 -0.16714597823469485 2.3267117530272126 0 0 0 0.68372513877089336 34 9 42 13 93 15
6471 -1.422181848405669 -0.31883276032301583 2.4979903229463876 0 0 0 0.93710361112625229 98 10 95 10 56 5
6472 -0.48046863093511871 0.74714930763651721 2.916590099954758 36 27 25 1.9569993970092034 34 21 86 11 42 21 77 17 16 17
6474 -1.3564538229215302 -0.04831674469789226 2.6054135847726738 92 63 9 2.2993696670028512 34 33 42 30 98 21
6476 -1.2898815576154934 -0.21306222368664035 2.096342106285459 234 192 57 0.67966096072727267 34 50 42 41 98 56
6477 0.016251254908481151 -0.23555730450084922 1.8463191140007247 126 108 43 1.4572185203620258 34 51 42 50 98 49
6478 0.18587741257638468 -0.14448951640576121 1.7719502415518071 85 86 100 1.583010883881844 34 58 42 52 98 50 95 50 38 68 27 57 77 57 56 59 39 73 80 97 2 87 53 122 68 121 28 143
6479 -0.21886848088234731 0.15523199367642077 2.7045567245406392 117 81 15 1.2242155671723536 34 59 55 100 98 118
6480 -0.052008575664291505 0.47416445444193017 2.6912379651032725 1 1 2 1.3907270274993599 34 69 42 61 95 88 17 70 45 65 98 87
6481 0.40415685279333374 0.062108448208776305 1.9965575557260282 104 87 24 1.6719489860834493 34 55 42 75 98 105 95 70 17 66 45 64 38 197 27 190 77 72 56 45
6482 -0.91269780484575813 0.09404499902362623 1.9770950316634732 101 84 22 0.91023799731107313 34 165 42 81 98 101
6483 -0.81506762382817932 -0.25276088441403916 2.4064097449960213 151 98 14 1.0212742094487854 34 89 42 85 98 111
6484 -0.95129043093031385 0.79442830971558442 2.9384206530444339 54 36 29 2.4180925604647814 34 98 42 91 77 138 56 140
6485 0.78547189022262098 0.014309556529265048 2.0071061277854709 244 198 63 1.9659244717981197 34 149 42 96 77 165 56 157 47 74 62 87
6486 -1.1725507043403542 0.38777364429390587 2.6075120447017532 91 81 22 0.83484851492226642 34 97 42 104 98 119 45 100 67 102
6487 -0.57599971459217858 -0.022980085065980649 2.4233063412087117 47 36 6 0.40102746974989101 34 74 42 119 98 97 95 100 17 86 45 94
6488 -0.2894802552037033 -0.27543866908747389 2.4552998923686515 0 0 0 1.5954685345289812 34 175 42 124 98 187 95 893 17 974 45 913
6489 -1.155597240931981 0.47001137030178641 2.8550038116169882 38 44 61 1.6913109955174355 34 161 42 135 95 254
6490 -1.1039388090684095 0.50317282378240435 2.6373546717874965 10 10 12 1.7723356709495335 34 128 42 142 98 116 95 170 17 154 77 106
6491 -1.122054075097161 0.17095740091660422 2.4979447523955582 238 195 65 0.14725236136473843 34 158 42 149 95 120 17 172
6492 -1.0996600866203796 0.30142547578669215 2.554594565714952 57 49 44 1.0738003109939198 93 231 42 150 98 204 95 177 45 547
6493 0.21631356626094136 -0.48713123353838667 1.8361952950580378 146 128 37 0.26105962411498901 42 153 98 173 38 209
6494 -1.2804231002576405 0.067988134269962322 1.9939784215060727 111 96 23 1.4383238623220047 34 192 42 162 98 161 95 193 17 210 45 146 38 149 27 74 39 81 77 153 80 83
6495 0.087023813207646239 -0.16767378924992904 1.8447732347427306 15 16 21 0.77706689305607368 34 205 42 178 98 216 45 250 38 443 27 207 77 202 56 277 39 320 80 338
6496 0.33108115496225787 -0.047442582931613846 1.6947544445373837 151 131 50 0.66857574975352363 34 207 42 182 98 174 95 184 17 163 45 207 38 177 77 199 56 195
6497 -1.3466468020750109 0.4465196924386714 2.9893629239622781 102 105 97 0.74198022305695899 34 366 42 203 95 164 98 149
6498 -1.2373232527157856 0.46880819340988195 2.7465298954692727 18 18 17 0.72413180935596788 34 136 42 206 98 239 95 297 45 619 67 669
6499 -0.74229910705880431 0.45402988922997706 2.7378712188800494 80 65 15 1.6448567419568809 93 197 42 211 83 116 16 242 25 100 47 106 62 115 10 119 78 118
6500 -1.0304351602816142 0.56304342095513804 2.5392573370150493 3 3 4 0.43128746148331509 34 224 42 214
6501 -0.061629021620103301 0.40681856364367447 2.8239064980103201 50 53 70 0.75211201337456413 34 232 42 216 98 203 16 209
6503 -1.3523813142530843 -0.064271369748106877 2.5931965332921241 103 69 11 0.95242226890230164 34 277 42 235 98 256 95 267 17 272 45 136 38 138
6504 -1.4675913403186691 0.37499180326957071 2.9975054227764089 85 90 87 1.0633117698466097 34 243 42 241 98 230 95 250 17 240 45 266 38 272 67 286 84 554 8 361 36 597 79 535 64 1018 54 648 9 413 40 782 59 547 7 287 41 640 1 460 31 395
6506 -1.2290271888430218 0.24843298229969413 2.3798185713688547 137 97 22 0.39395981380796513 34 470 42 258 98 600
6507 -1.2793816186620948 -0.099175032666446811 2.4256892863900017 31 30 35 0.64145002353160963 34 1296 42 265 98 385 95 412 17 462
6508 -1.187086218550109 0.26656639353606382 2.2667465828382531 73 91 128 0.98846842977748606 34 285 42 268 98 456 95 690 45 810
6509 -1.2455550563311277 0.28489163521483363 2.2829577408849691 79 82 108 0.24223790833870629 34 488 42 273 98 307 95 650
6510 -0.098869029041227185 0.54178411848888108 2.7947404431651015 10 5 4 0.82895170543951524 34 445 55 251 42 287
6511 -1.2124902582180688 0.35107823421955203 2.4160742414046825 20 23 33 0.19748988643580243 34 420 42 294 98 298 95 317 55 313 17 297 45 548 38 348 27 272 77 272 56 364 39 258 80 266 2 243
6512 -1.5222308159724882 -0.36300721107076483 3.2263918722523446 154 107 84 1.5853140725218544 42 296 98 265 95 278 17 144 45 174 38 162 67 173 27 140 84 177 51 146 8 133 36 96 79 114 40 203 59 117 82 209 69 172 37 153 87 138 77 285 39 215 80 118 2 125
6513 -0.27524089384723144 0.48029934650762823 2.5748931433418023 5 5 7 0.63025996290413944 34 411 42 303 98 367 95 525
6514 -1.4240218163957887 -0.20562396479688574 2.9506072492017963 81 96 128 1.3054523776335774 34 1301 42 306 98 2026 95 3986
6515 -0.18003061664746375 0.31373413951251022 2.6170120902863303 6 3 3 0.5309866914455138 34 223 42 308 98 269
6516 0.10057668538605838 -0.18896991646834518 1.8124015841827095 109 124 159 0.84394727594585106 34 342 42 311 98 200 95 190 17 422 45 405
6517 0.47096070728420447 0.020160483402436091 1.7871267656669143 99 74 13 0.54762990216749563 34 338 42 313 98 350 95 224 45 238 17 178
6519 0.046004498399594904 -0.51870188236573478 1.9710864473502128 13 13 13 0.37716964423566757 34 305 42 318 98 788 95 852 17 857 45 879
6520 -1.0807227665348376 -0.26183455162047242 2.0706022632279519 255 233 79 1.2278629779800954 34 240 42 324 98 157 95 147 17 93 45 86
6521 0.31803622661966036 -0.12314023852196998 1.7264532634570715 147 131 52 1.1377740008392689 34 294 42 327 38 222 27 262 7 218 56 272 39 179 80 181 2 152 66 155 1 173 53 145 68 153 31 165
6522 0.33641922944941832 -0.22211584215926089 1.6810726531235889 170 144 51 0.50618326741632202 34 301 42 331 56 283 39 177
6523 0.25203114767670243 -0.22566189633996836 1.6538026865283944 172 143 52 0.8492314489511722 34 370 42 332 38 368
6524 -0.10225073946283039 0.59706485459526204 2.4922294373578175 237 216 176 1.8386189349333564 34 648 42 337
6525 -0.76928516846830453 0.15964249039244643 2.0968213944814704 18 18 25 0.16397819240212533 34 256 42 354 98 693
6526 -1.259205906509131 0.13303927669817361 2.0567725972123774 113 100 27 0.16921146140957494 34 259 42 356 98 388 95 465
6527 -0.00058840393338792027 0.054683912245438629 2.2357015402854699 104 90 25 0.23717935670947016 34 257 42 357 98 411 95 399
6528 -0.37274515803705255 -0.32888393158868134 2.4062067515065708 28 31 38 0.15427723268787705 34 264 42 362 98 366 95 392 17 390 45 464
6530 -0.038200553446057238 -0.32761364381295111 2.3513448746407768 32 33 42 0.1764274258782447 34 319 42 368 98 829 95 931 17 939 45 932 38 971
6532 -1.3658667548776158 0.36997223588719086 3.0163524951386069 66 70 63 0.42263209481150987 34 393 42 388 98 422 95 351 17 356 45 502 38 415
6533 -1.4366024075791322 0.3848949620101928 3.0039121665958666 71 75 68 0.69688856572628433 34 394 42 389 98 477 95 479 17 524 45 588 38 416 67 604 27 383 39 296 80 312 2 289
6534 -1.4619306278400286 0.53339189809232435 3.0809594869375556 123 125 117 1.1970256305423821 34 349 42 391 95 236 17 274
6535 -1.0466996865611455 0.5673442473543594 2.693613630753934 52 64 93 0.57208584061213119 34 389 42 401 83 374 77 282 56 366 10 520 25 352 47 332 62 252 78 329
6536 -1.2250445534626411 0.14397846410613829 2.0348368790102556 17 14 17 0.099340786404537335 34 379 42 402 98 451 27 368
6537 -1.5059668192831153 0.39328402903587828 3.0038273121901167 73 78 71 0.99549125052507947 34 367 42 411 98 433 95 446 17 543 45 500 22 897 38 417 67 486 27 416 77 392 56 321 39 351 80 376 2 295 53 424 68 413 31 397
6539 -0.4760802420753264 0.62419053110543021 2.917436500162542 6 7 8 0.27107164948752999 34 422 42 415 98 470 95 362
6540 -1.1205634714779993 0.61290173794808045 2.786638399292503 57 66 89 0.32996201861684354 34 423 42 416 98 459 95 481 17 759 45 875 25 374 78 344
6541 -1.1986351107195155 0.67711342116367812 2.6412444411553953 46 50 68 0.32935222919635698 34 1254 42 420
6542 -0.22968235158661121 0.5901819805126598 2.9224077142906579 2 3 5 1.1202482713010633 34 428 42 421 95 341 17 349 45 668 38 551
6543 -1.6161498861443186 0.13420752382640805 3.1116209717766456 163 158 140 0.61819274516892297 34 570 42 422 98 473 95 796 93 2163 17 601 45 616 67 599 84 555 8 323 36 608 79 329
6544 -1.4957432678953351 0.45057354899238955 3.0055795705724213 121 122 114 0.23258619722645102 34 362 42 434 98 278
6548 -1.5321357391293133 -0.15424154925367042 3.2209449989226981 231 215 177 0.65020615490806821 34 399 42 491 98 340 95 314 17 362 45 229
6549 -0.72559593086838214 0.4942762887270627 2.6917403339447965 80 63 14 0.67869907363292514 34 613 42 498 16 556
6550 -0.84382054867193967 0.45444505186969597 2.6963871279806195 11 8 5 1.064302409911799 34 615 42 500 83 230
6551 -0.29843093994406589 0.11007622315608578 2.4623728438860266 103 76 14 0.39366526976915828 34 451 42 507 98 399
6552 -0.65419475611027467 0.093356145041150806 2.4027625430316588 122 104 29 1.5336217910061938 34 456 42 511 95 413 17 259 45 337
6554 -0.29168133639554661 -0.35333555326373878 2.4691584760881455 0 0 0 0.48963698891594065 34 776 42 523 98 1735
6556 -1.2187423330890479 0.32689264039525967 2.4007071283427668 109 102 32 0.47219187460675172 34 477 42 538 77 462 56 413
6557 -1.4105590468251994 -0.072394265640521427 2.6438383548636435 58 61 73 0.53454379978025368 34 1292 42 544 98 311 95 1285 17 1601
6560 0.31928671535290448 -0.10381940433043182 2.0741397590960529 0 0 0 1.1759273828296219 34 1840 42 581 45 1204
6562 -0.23445196052849615 0.64804733794733815 2.8973641877855778 71 78 76 0.49121775101174353 34 512 42 623 56 884
6563 0.23962729899011598 -0.82153966667580147 1.8904508541515854 169 144 53 1.253628900999717 34 746 42 626 38 180 98 218 27 180 77 357 34 138 56 330 39 317 2 213 1 132 66 150 53 198 68 152
6564 -1.019952261531115 0.8655128802095986 2.7902515646688486 107 74 55 0.74617912933194019 34 1059 42 662 98 466 95 503 17 514 45 599 38 491
6565 -0.62275287595468687 0.81125221605237141 2.8410979381065569 25 18 15 0.90050592377189387 34 724 42 667 98 479 95 495 17 520 45 591 38 470 27 469 39 888 80 433
6566 -1.5637471235802045 0.39565774368509521 3.0087290380492271 80 83 76 0.62590754313988339 34 1209 42 672 98 710 95 1367 17 1415 45 868 38 503 67 1347 27 427 77 391 56 319 39 357 80 327 2 293 53 356 68 371 31 399 1 443
6567 0.24453433589581286 -0.84984517481491118 1.9000710327853847 169 144 53 0.094665261324822128 34 514 42 686
6568 -0.085711842106400093 -0.3101748055728068 2.3863162547600161 118 69 14 0.56007332655107189 34 749 42 706 98 961 95 1073 17 1013 45 1215 38 1101
6570 -0.79630560346488322 -0.2010706344414096 2.0366451939091617 255 212 66 0.87107703264882819 34 1558 42 717 98 822 95 375 45 458
6572 0.079378575688060476 -0.20453745041640764 1.8512978595325642 123 107 36 0.88911102294726685 34 1636 42 737 98 1058
6573 0.5426892722548714 0.011328916631485839 1.8079303170232741 169 129 32 0.14615165115528775 34 504 42 740 98 841
6574 -0.13390758655073451 -0.40499855128432766 2.0912189132144103 22 25 34 0.1632757395441142 34 500 42 747 98 811 95 865 55 562 17 890 45 940
6575 0.12260210345638101 -0.0029326458034742119 2.4722051716499851 9 7 9 0.023809625662543746 34 830 42 750 25 560
6576 0.80159295007257192 0.22481252730775542 3.0701089777234429 125 114 91 0.23459178637808137 34 983 42 752 95 1224 17 1240 45 1357
6578 -0.37939575283007815 0.26171835796055948 2.4395029574950051 111 90 24 1.8507217723636038 34 486 42 767 95 1356 98 1962
6579 0.070576429270946262 0.48848391236552346 2.8211257914546866 225 208 171 2.4497981931086232 55 458 93 672 42 782
6580 0.11032861172569902 0.4477055114888045 2.838728548656352 119 105 77 1.7074176519376643 34 974 42 783 98 1420
6581 -0.24037903064258881 0.47303968114115619 2.7924967137464582 28 33 46 0.4827227279638161 34 995 42 787 98 1099 77 1515 56 2233 39 2897 27 3235
6582 0.7390414349080644 0.30406316248870735 3.0406501556699181 119 112 91 0.2412781191130664 34 973 42 791 98 1077 95 1217 45 1304
6583 0.26819780451435626 0.1171729875411914 3.1075372180082876 115 102 79 1.2681584276861328 34 638 42 792 95 1062 17 1236 45 1301
6584 0.44913752211710983 0.27325808416437114 3.0579427630579556 128 113 87 0.22573955831710704 34 966 42 805 98 1443 95 1423 17 1558 45 1507
6585 0.22389353243534069 -0.12557690214291076 1.7172583148447962 142 126 42 1.0523293968474314 34 878 42 810 38 364
6586 0.30204397301670288 -0.10241607804241329 1.7366687704068668 138 125 48 0.21210324422397392 34 876 42 813 98 741 95 577
6588 0.32979148689809978 -0.051302116895504686 1.6470490663698316 145 128 51 0.078471190220226153 34 880 42 818 98 1030 95 853
6590 0.31924499888344926 -0.11963476733164227 1.6714259682750292 145 131 52 0.11532485824777856 34 859 42 842 98 996
6591 0.33475168146748191 -0.10369528891282526 1.6742416704299035 104 80 12 0.66464565799876107 34 846 42 844 98 784 95 850 17 863 45 402 38 651 27 655 77 630 39 558 80 588
6593 -1.2877283009859768 -0.12852794043851967 2.3541723117251685 175 177 194 0.15211656433937956 34 833 42 861 98 941
6594 -0.77892277013398692 -0.14297080670885004 2.0238235034077325 255 244 80 0.75997261985565978 34 1348 42 862 98 825 95 376 17 386 55 603 45 463
6596 0.21641047719591638 -0.13621231696851382 1.9986254911109118 120 105 47 1.0981917218928843 34 499 42 865 98 1051 95 886 17 882 45 1272
6597 -0.17261768561968466 -0.46460608301721712 2.2033317695436416 139 107 27 0.13981966483319369 34 912 42 867 95 888 17 928
6598 -0.99590331081289352 0.88342224704598804 2.7713475882267637 28 20 17 1.5258304558805058 34 940 42 888 27 384 39 331
6599 -1.3361184001305388 0.68712517474488921 2.9127452046101094 76 77 67 0.17785942905732754 34 944 42 889 98 905
6600 -1.3473666974549849 0.61949812707069296 2.936916046960564 73 73 62 0.30409155808232619 34 952 42 897 98 877
6601 0.18237290290235131 -0.056644124011946399 2.0608155362274543 87 68 18 0.3611757605631456 34 820 42 902 98 1022 95 970 17 1274 45 1265
6603 -1.1868307431991993 0.91207298924200675 2.8114011959207028 57 40 32 0.56555213529859416 34 795 42 907 98 874 95 941 17 1041 45 1134 38 669 27 635 80 827
6604 -1.4112103843679824 0.7382389674322728 2.8920073937817521 126 128 120 0.1187481834185028 34 693 42 915 98 664 95 730 17 754 45 498
6606 0.10201893925262154 0.39432279836053391 3.0146574696019877 98 87 66 0.015953633267430406 34 932 42 919
6607 0.051674087521664719 0.60124425436299445 2.7726370748484959 106 94 71 2.0046270886544857 34 935 42 921 98 1096 55 1038
6608 1.0454524075615161 0.61104233828074339 2.9376561740608351 37 25 21 0.94529253552282932 34 934 42 922 17 1815 83 464 80 2155
6609 0.041686147183124647 0.54006741120094581 2.7933009022351714 104 91 67 1.9340153330454872 34 987 55 1041 42 928 98 1101
6610 -1.360922774468565 0.59374731767675937 2.942022445480323 115 117 109 0.12406212125346978 34 956 42 935 98 666
6613 0.040633732383472468 0.47341357107397114 2.9858393986198992 103 91 67 0.041058251510707869 34 916 42 949
6614 -1.2877283009859768 -0.12852794043851967 2.3541723117251685 175 177 194 0.15211656433937956 34 765 42 953 98 1126
6615 -2.4824788400549386e-05 0.042950321025991667 2.1615142558248635 149 110 43 0.13454905116769802 34 781 42 965 98 2687 95 2557 17 3090
6616 -0.33087382271060345 -0.24901895050468903 2.3287849946459134 133 79 5 0.51427219049376938 34 771 42 966 98 952 95 1944 17 2567 45 2438
6618 -0.23569403837913638 0.16633111351183413 2.3679203380032736 96 59 5 0.54911794684052384 34 1270 42 974 95 1540 98 933 77 505
6620 -1.2097125352792173 -0.18153956617051323 2.0458382270153894 255 232 75 0.49635044978404635 34 819 42 999 98 277
6622 0.11554049957720564 -0.041716337941312361 2.125594470056495 114 63 8 0.64560216581257268 34 1706 42 1014 98 871 95 954 17 1058 45 1217
6623 -1.2221496341710911 0.44930531573885246 2.6712515503506986 8 8 4 0.18060334879360845 34 1357 42 1022 98 1171 17 1445 67 2229
6625 0.041726308805005025 0.53771944340074118 2.7982476897253292 104 91 67 1.9913104605753302 55 1328 42 1031 98 1208
6626 0.051674087521663983 0.60124425436299589 2.7726370748484941 106 94 71 2.0046270886545163 34 1142 55 1375 42 1050 98 1228
6627 1.0452965557432441 0.60984784634676226 2.9381795472289189 37 25 21 0.88953002781412871 34 1139 42 1054 17 2222 77 1001 80 1829 25 437 78 432
